ply
format ascii 1.0
element vertex 1644
property float x
property float y
property float z
end_header
0.032915 -0.650333 0.007987
-0.002575 -0.569708 0.028553
0.006871 -0.519480 -0.006312
0.036426 -0.498711 -0.000890
-0.007670 -0.562246 -0.008714
0.007210 -0.605609 -0.022909
0.010297 -0.684057 0.014551
0.002863 -0.526558 0.005939
0.015046 -0.536675 -0.015021
0.025658 -0.680429 0.012100
-0.038591 -0.599995 -0.009557
0.013200 -0.554280 -0.019534
0.004544 -0.650014 0.006713
0.011741 -0.560815 -0.001891
-0.019603 -0.568230 0.036948
0.009860 -0.625858 0.009607
0.009696 -0.566971 -0.022360
-0.010393 -0.512113 -0.003049
0.000346 -0.590734 -0.006521
0.000118 -0.516005 -0.008292
-0.008767 -0.517874 0.017156
-0.009333 -0.588545 -0.011148
0.003675 -0.533400 0.013057
0.004375 -0.638260 -0.006899
-0.004275 -0.603931 -0.043463
-0.000018 -0.541122 -0.007602
-0.034401 -0.604512 -0.002937
0.021083 -0.591538 0.016762
0.003995 -0.531544 -0.008964
0.000671 -0.595286 -0.006689
0.038321 -0.557275 -0.034667
-0.018741 -0.570619 0.006017
0.002753 -0.516955 0.005149
0.010820 -0.605184 -0.031439
0.000959 -0.648014 -0.058045
0.034152 -0.519906 0.005670
0.007222 -0.516886 -0.004978
-0.026297 -0.635566 0.017481
0.007363 -0.528557 -0.031006
-0.014186 -0.609187 -0.056948
-0.010097 -0.683527 -0.041247
0.005546 -0.665044 -0.021311
-0.006047 -0.609537 0.001186
0.026801 -0.667030 0.017085
-0.032523 -0.527229 -0.035364
-0.017435 -0.630590 -0.040624
0.030438 -0.543104 -0.016403
0.011466 -0.521736 -0.051255
0.027007 -0.576971 0.021515
-0.004551 -0.615503 -0.012608
-0.003660 -0.652285 -0.014008
0.013729 -0.519191 -0.007277
-0.007338 -0.680921 -0.043547
-0.041520 -0.609299 -0.013012
0.029592 -0.629615 -0.026497
0.047878 -0.660868 0.017393
-0.023899 -0.558860 0.021849
-0.001093 -0.613202 -0.038137
0.004823 -0.543058 -0.014001
0.021729 -0.568113 0.012428
0.038651 -0.597758 -0.015005
0.008687 -0.503639 -0.037377
-0.034186 -0.543505 -0.010768
0.001383 -0.547159 -0.010001
0.020327 -0.621813 -0.001937
-0.020604 -0.542276 0.009720
-0.009671 -0.515625 -0.003815
-0.002546 -0.560458 -0.036920
0.011801 -0.625043 0.008529
0.050163 -0.552100 -0.013414
-0.020850 -0.639700 0.003905
-0.007582 -0.507991 -0.027323
0.007554 -0.510665 -0.002699
-0.043144 -0.572144 0.016454
-0.007566 -0.671574 0.005851
0.003425 -0.650623 -0.006508
-0.050697 -0.640751 0.000272
-0.008218 -0.683981 0.027543
-0.009230 -0.618309 -0.057034
-0.025357 -0.520213 0.016940
-0.039916 -0.506955 0.018987
0.043952 -0.542803 -0.016826
-0.041414 -0.651388 -0.019119
-0.014051 -0.635761 0.011156
-0.024243 -0.607948 0.004167
0.017256 -0.509899 0.023490
0.033389 -0.505458 0.026596
0.026617 -0.653966 0.039601
-0.016555 -0.508248 -0.011250
-0.008293 -0.671990 -0.012156
0.009289 -0.653793 -0.010651
0.048520 -0.552579 -0.006067
0.004267 -0.561503 -0.002076
-0.009177 -0.535522 0.011515
0.032897 -0.522649 -0.032047
-0.031657 -0.647329 0.018854
-0.010836 -0.576464 -0.042960
0.003093 -0.514015 -0.052274
0.015572 -0.521211 -0.046974
-0.047966 -0.537916 -0.004915
-0.000439 -0.615502 -0.001737
0.029491 -0.521365 0.021183
0.010643 -0.639225 0.017312
0.013917 -0.605229 -0.000515
-0.002128 -0.679566 -0.013321
0.013983 -0.659468 -0.021191
0.036708 -0.509346 0.023499
-0.035653 -0.559297 0.021673
-0.039730 -0.617381 -0.008174
-0.013802 -0.615496 -0.032089
0.000728 -0.575081 -0.055547
-0.022308 -0.503678 -0.041945
0.002743 -0.631587 -0.008535
-0.020256 -0.550317 0.008740
0.020157 -0.581980 0.012566
0.037214 -0.649184 -0.011714
-0.023264 -0.576444 -0.028660
-0.006981 -0.555637 -0.020180
0.012275 -0.556322 -0.038967
0.002192 -0.587357 -0.005839
-0.033499 -0.634647 -0.009497
-0.027174 -0.664632 -0.024480
0.011003 -0.544369 -0.052641
-0.003454 -0.524398 -0.039490
0.000915 -0.640097 0.004015
-0.002849 -0.541819 -0.026724
0.046869 -0.562968 0.013926
-0.034487 -0.596578 0.002473
0.010651 -0.653254 0.011686
-0.047141 -0.571381 -0.010960
-0.009125 -0.573109 -0.005254
0.008798 -0.589500 -0.019796
0.001469 -0.643124 -0.003390
-0.021494 -0.499829 0.035049
-0.002407 -0.640108 -0.014759
-0.050788 -0.683437 -0.005992
0.024401 -0.600584 0.014534
0.002954 -0.593021 -0.003407
-0.013293 -0.531582 -0.004185
0.036274 -0.533020 0.019219
0.006858 -0.528456 0.016531
0.052662 -0.591295 0.001808
-0.001800 -0.540795 -0.018400
-0.005856 -0.507128 -0.017144
0.000704 -0.542014 -0.031180
-0.021774 -0.541801 -0.020474
-0.029139 -0.656733 -0.048356
0.022374 -0.587979 0.001492
0.014366 -0.581479 -0.008496
-0.001508 -0.506090 -0.011334
0.032439 -0.636646 -0.045948
-0.016790 -0.547754 0.008470
-0.008190 -0.590433 0.000618
0.005410 -0.622958 0.001376
0.050328 -0.670156 -0.024095
-0.036875 -0.500536 -0.001606
0.044507 -0.527190 -0.010197
0.021707 -0.631094 -0.000284
-0.039962 -0.534240 -0.036972
-0.024537 -0.575691 0.035404
0.001082 -0.641877 0.003826
-0.021228 -0.619318 0.038629
0.018660 -0.597721 -0.021381
-0.017088 -0.535119 -0.043609
-0.045599 -0.618041 -0.010894
-0.040295 -0.613134 -0.027783
0.022854 -0.516087 -0.034317
0.054421 -0.617152 -0.010317
-0.036458 -0.637527 -0.030113
-0.014114 -0.605732 -0.022574
-0.008209 -0.558403 -0.039462
-0.000642 -0.524401 -0.006943
-0.020068 -0.597587 -0.021407
0.009091 -0.630742 0.006679
-0.025451 -0.633611 0.017414
-0.001408 -0.647288 -0.006636
-0.025229 -0.528248 -0.049676
0.017623 -0.618457 -0.010339
0.032188 -0.634705 -0.012811
0.001837 -0.659460 -0.005410
-0.000810 -0.511668 -0.043011
0.021953 -0.515558 0.011324
0.001296 -0.534223 -0.005458
-0.011148 -0.657731 -0.020256
-0.019288 -0.635350 0.020945
-0.013078 -0.639463 -0.049520
-0.020074 -0.670287 -0.037083
-0.000687 -0.569060 -0.008758
-0.011181 -0.656225 0.005874
0.006686 -0.591092 -0.030195
0.004253 -0.637485 -0.027512
0.014282 -0.563391 0.000222
-0.004884 -0.677033 -0.006271
-0.014168 -0.514747 -0.003545
0.023484 -0.673112 0.014493
-0.041647 -0.523930 -0.006120
-0.023801 -0.552166 -0.046569
0.027371 -0.587891 -0.009127
0.033169 -0.564437 -0.018934
-0.006037 -0.619183 -0.013532
0.013191 -0.669697 0.015396
0.001209 -0.589425 -0.011747
-0.007513 -0.589829 -0.005336
-0.002036 -0.581821 -0.003908
0.005009 -0.510135 -0.003343
-0.001104 -0.509220 -0.007103
-0.000201 -0.539851 -0.044560
0.009959 -0.629957 -0.016429
-0.029293 -0.525741 0.029497
-0.005700 -0.549398 -0.019137
-0.017678 -0.674604 -0.006449
0.041282 -0.538050 0.009649
0.018605 -0.533342 -0.011576
0.017674 -0.506793 -0.051248
-0.000207 -0.616991 -0.053914
-0.033255 -0.625650 -0.035439
-0.024976 -0.672027 -0.027170
0.034823 -0.552294 -0.039012
-0.027332 -0.525810 -0.036269
-0.002773 -0.559461 -0.032945
-0.029485 -0.559752 -0.002292
0.014695 -0.663482 0.008146
-0.001061 -0.562543 0.002174
0.006091 -0.620725 -0.010955
0.027795 -0.666254 -0.014741
0.037109 -0.499387 0.011194
0.000488 -0.519346 0.039754
-0.021328 -0.591073 -0.031772
-0.003058 -0.615179 -0.032272
0.009911 -0.658244 -0.008533
-0.043333 -0.654008 0.006153
0.039847 -0.583508 -0.038884
-0.031897 -0.540431 -0.014314
-0.034461 -0.612425 0.032517
-0.000519 -0.508757 -0.003026
0.000305 -0.615292 -0.010418
0.042292 -0.566852 -0.034927
0.025753 -0.592163 -0.006873
-0.032172 -0.634915 0.026621
-0.000230 -0.532800 -0.007114
-0.001810 -0.524364 -0.016280
0.030386 -0.596810 -0.031578
0.025219 -0.603318 -0.018531
-0.016291 -0.578206 0.038620
-0.022533 -0.528690 0.031562
-0.000272 -0.572192 0.005835
0.021430 -0.647369 0.037095
0.003983 -0.553370 0.012353
-0.002730 -0.529996 -0.040485
0.019163 -0.602566 -0.023528
0.014184 -0.645225 -0.019270
-0.015255 -0.531034 -0.046336
0.013987 -0.610116 -0.009623
-0.041926 -0.573970 0.006625
-0.034292 -0.542218 -0.016172
-0.004653 -0.682584 -0.020717
-0.024457 -0.622468 0.002022
-0.009396 -0.568675 -0.011546
0.001230 -0.612928 -0.004558
-0.023969 -0.684506 -0.014591
0.032397 -0.566260 0.011190
-0.000648 -0.602711 -0.035182
0.042501 -0.501150 -0.027404
-0.012202 -0.679605 -0.033091
0.007830 -0.499619 -0.020611
0.008355 -0.533768 0.008239
0.025016 -0.523711 -0.030933
-0.012818 -0.537818 0.003458
0.015997 -0.668182 0.029937
0.024523 -0.677223 0.026347
-0.008850 -0.598967 -0.023015
0.043904 -0.643379 -0.015677
-0.037546 -0.537321 0.010315
-0.043455 -0.569798 -0.003940
0.043135 -0.632223 -0.021342
-0.023198 -0.570230 -0.031001
-0.005934 -0.640479 0.020377
-0.011750 -0.619633 -0.016696
-0.006393 -0.560735 0.012960
-0.018523 -0.682715 -0.020058
0.033954 -0.525955 -0.038588
-0.006483 -0.613115 -0.007760
-0.006484 -0.600030 -0.056018
0.028215 -0.597019 -0.017516
0.036951 -0.679682 0.024975
-0.006984 -0.516803 0.016225
-0.020775 -0.664878 -0.038766
0.003940 -0.684434 -0.002895
0.025349 -0.646302 -0.038883
-0.039343 -0.664632 0.004772
0.031738 -0.547540 -0.003061
0.000163 -0.552969 -0.006466
0.025375 -0.594864 -0.010229
0.052265 -0.676365 0.008320
-0.051899 -0.605346 -0.001736
-0.029624 -0.565872 -0.042775
0.000435 -0.593845 -0.006425
-0.001214 -0.528012 -0.006757
-0.008948 -0.593506 0.001113
-0.010623 -0.585397 -0.021374
0.005138 -0.681762 -0.009136
-0.004503 -0.608398 0.036061
-0.001680 -0.510140 0.007457
0.004719 -0.611658 -0.023893
0.022469 -0.608377 -0.041580
0.015242 -0.634289 -0.023910
0.047475 -0.572123 -0.014760
0.039053 -0.564396 -0.014126
0.012331 -0.543776 -0.010312
-0.004805 -0.571701 -0.048289
-0.032839 -0.643657 0.022878
-0.003651 -0.599650 0.005247
-0.009293 -0.554333 -0.007182
0.005585 -0.607223 0.023916
0.044073 -0.670028 -0.040648
0.009712 -0.549812 0.002917
-0.011657 -0.638566 -0.052295
0.007539 -0.538585 -0.032797
0.015605 -0.623507 -0.002441
0.013517 -0.666738 -0.054319
0.008032 -0.644963 -0.006444
0.014214 -0.607466 0.022158
0.015606 -0.608528 -0.011741
0.005170 -0.556740 -0.044002
0.014440 -0.629087 0.035083
0.006666 -0.558268 0.020256
0.040017 -0.596397 -0.021017
0.029846 -0.651637 0.007444
-0.045848 -0.566620 -0.021224
0.000633 -0.619601 -0.005480
-0.008956 -0.524988 0.002079
0.002991 -0.651395 0.029843
-0.002473 -0.547637 -0.009898
-0.024925 -0.598381 0.025662
-0.002693 -0.541602 -0.009601
0.023097 -0.674038 -0.041893
-0.004147 -0.569711 0.004713
-0.021290 -0.676485 -0.008633
0.004581 -0.684826 -0.007236
0.023267 -0.640278 -0.002452
0.015517 -0.615423 -0.005528
0.003294 -0.567015 -0.030780
0.008526 -0.594817 0.000551
0.034268 -0.567087 0.002511
-0.003579 -0.593099 0.016969
0.008725 -0.655467 0.020949
-0.006297 -0.619028 -0.004394
0.002361 -0.621711 0.003727
0.003124 -0.516483 -0.016361
0.001510 -0.614879 -0.030276
-0.023870 -0.522732 0.028322
0.022126 -0.572668 0.003235
-0.038794 -0.501094 -0.036889
-0.025130 -0.601646 0.011129
-0.000624 -0.559123 -0.010800
-0.003515 -0.503843 0.004985
0.006224 -0.682325 -0.039301
-0.032693 -0.631011 -0.045370
-0.042105 -0.501662 0.007062
-0.000278 -0.548517 0.005527
0.001342 -0.518714 -0.012305
0.039553 -0.623917 -0.009127
-0.037040 -0.644493 -0.013902
-0.006820 -0.625640 -0.010954
0.048120 -0.667589 -0.004437
0.040848 -0.626924 -0.025770
-0.016504 -0.678350 -0.049264
0.005432 -0.515784 -0.003306
0.003348 -0.505531 -0.001968
-0.009393 -0.645461 0.039963
0.036470 -0.515080 0.004921
0.005107 -0.606683 -0.008359
0.003652 -0.612051 0.010430
-0.034007 -0.628323 -0.008970
-0.022627 -0.535052 0.024453
-0.002308 -0.614669 -0.006529
-0.001020 -0.649246 -0.011321
0.000366 -0.571189 -0.007165
-0.014852 -0.503709 -0.054890
-0.008337 -0.650006 -0.011133
-0.001434 -0.565114 -0.012138
0.028769 -0.646316 -0.015448
0.031326 -0.593928 -0.045274
-0.012080 -0.596139 -0.009670
0.002050 -0.567042 -0.008300
0.012733 -0.567145 0.012210
0.027772 -0.601242 0.013490
0.015015 -0.665669 -0.006138
0.010780 -0.516464 -0.007747
0.021097 -0.530011 -0.005146
0.001501 -0.569218 -0.009935
-0.002405 -0.652975 -0.021185
0.016330 -0.531706 0.029363
-0.000670 -0.538949 0.006391
0.048587 -0.611937 -0.002648
0.026515 -0.547415 -0.013138
-0.051758 -0.660569 -0.016490
0.003749 -0.565793 -0.009489
-0.030160 -0.657706 -0.051198
-0.039370 -0.565887 0.012291
0.025446 -0.624275 -0.005036
0.034047 -0.663553 -0.018833
-0.012447 -0.604076 -0.027408
0.009728 -0.557040 -0.014980
-0.022096 -0.653132 -0.032534
-0.001194 -0.551874 -0.026608
0.005862 -0.556803 0.019906
0.001740 -0.631289 0.002588
0.012092 -0.659323 0.007884
0.032244 -0.645045 0.036639
-0.006904 -0.553375 0.007281
0.016053 -0.635396 -0.023348
0.006902 -0.665024 0.040980
0.003962 -0.550791 -0.035166
-0.037850 -0.576042 -0.013493
0.019353 -0.620211 -0.021927
-0.007307 -0.566666 -0.007177
0.021418 -0.516230 -0.008536
0.015000 -0.636960 -0.034421
-0.041810 -0.571688 -0.007178
-0.025957 -0.537499 -0.012415
0.004035 -0.604825 0.034955
0.019412 -0.554360 -0.048871
0.032386 -0.604757 -0.014447
-0.008761 -0.610149 -0.000745
-0.010875 -0.682848 -0.034464
0.002576 -0.683923 0.004826
0.004770 -0.587824 -0.003422
-0.009047 -0.648306 -0.023628
0.046604 -0.647192 0.022663
-0.011464 -0.653902 0.034755
0.003700 -0.604225 -0.017545
0.051720 -0.662814 0.000274
0.012285 -0.562030 0.007073
-0.039563 -0.546072 -0.012388
-0.017171 -0.579540 0.030963
0.002722 -0.529908 -0.047803
-0.014900 -0.641476 -0.013402
-0.026816 -0.672146 0.000478
0.032346 -0.594079 0.015643
0.035473 -0.555700 0.024267
-0.008635 -0.611169 0.009365
0.016653 -0.520584 0.009337
0.003059 -0.639040 0.000182
0.028961 -0.642692 -0.045368
0.021051 -0.608166 0.006251
-0.004329 -0.657267 0.008454
-0.027594 -0.669750 -0.008864
0.012469 -0.661727 0.025241
-0.002087 -0.586187 -0.011009
0.037155 -0.513001 -0.020963
0.011586 -0.668992 -0.003383
-0.000754 -0.597666 -0.010315
0.000666 -0.541186 0.010090
0.023003 -0.605708 0.013400
0.003235 -0.528373 0.043299
0.003360 -0.679506 -0.013085
-0.010670 -0.682020 -0.006458
0.019616 -0.624230 -0.008921
-0.033226 -0.656603 0.028277
-0.008489 -0.551682 0.034724
-0.048295 -0.653574 -0.004106
-0.007198 -0.503116 0.011019
0.002094 -0.641172 0.001826
0.025054 -0.568555 -0.024139
-0.012840 -0.519427 0.010951
-0.016557 -0.573305 0.010882
0.001481 -0.573488 0.018745
0.045808 -0.662171 -0.000338
-0.024373 -0.639617 -0.052968
0.008525 -0.597717 -0.042639
0.046382 -0.595314 -0.013551
0.039566 -0.557993 0.013457
-0.002282 -0.507634 -0.011400
-0.036060 -0.583210 -0.018399
0.031199 -0.552748 -0.012477
-0.011099 -0.528702 -0.010394
0.039041 -0.666167 0.018869
-0.037919 -0.577443 -0.038968
0.003828 -0.608262 -0.016471
0.018691 -0.661134 -0.038803
0.005150 -0.562593 -0.000669
-0.003426 -0.669704 0.039850
-0.036026 -0.520111 0.013067
-0.008929 -0.528681 0.008747
-0.001605 -0.616509 -0.008341
0.049547 -0.624846 -0.006282
-0.000245 -0.549014 -0.006929
0.030465 -0.569166 -0.012709
0.001090 -0.625332 -0.006345
0.005488 -0.686270 -0.012862
0.023373 -0.617349 0.030403
0.046953 -0.573114 -0.003740
0.018265 -0.557551 0.029695
-0.024790 -0.525639 0.014084
0.049668 -0.544852 0.006884
0.018369 -0.638623 -0.007684
0.001378 -0.504711 -0.005614
0.031200 -0.591562 0.012180
-0.001056 -0.503081 -0.007055
-0.000201 -0.564679 -0.006715
-0.012378 -0.501108 0.007850
-0.048533 -0.596834 -0.023777
-0.017629 -0.535302 -0.036237
0.019320 -0.512971 -0.024169
-0.000856 -0.614238 0.007890
-0.004491 -0.517864 0.019538
0.026391 -0.627508 -0.014063
0.041941 -0.549653 -0.037152
0.007963 -0.549056 0.043399
0.005497 -0.547565 0.025231
0.005488 -0.519821 0.024022
0.002382 -0.529717 -0.010941
0.034567 -0.560033 -0.039301
0.008154 -0.632107 0.038290
-0.002647 -0.588461 -0.017700
-0.005937 -0.545427 -0.004673
0.021317 -0.629585 -0.017477
-0.007966 -0.517321 -0.003553
-0.043580 -0.652875 0.013108
-0.032179 -0.600226 0.001560
0.013759 -0.546660 -0.029758
0.003746 -0.611677 0.012271
0.002614 -0.682509 -0.005058
0.003875 -0.630387 0.010424
-0.034534 -0.669551 0.023140
0.015930 -0.657498 0.022827
0.043024 -0.548325 0.010431
-0.028265 -0.536008 -0.037391
-0.050467 -0.523539 0.000467
-0.019872 -0.515546 -0.018987
0.009692 -0.577839 -0.008989
-0.029018 -0.526166 0.003086
0.028553 -0.642322 0.012046
0.044099 -0.589613 0.013366
0.001513 -0.569822 -0.059131
0.005641 -0.508346 -0.010728
-0.021507 -0.612949 0.035495
-0.033373 -0.637624 0.008533
-0.018603 -0.632798 -0.029725
-0.012520 -0.648976 -0.028371
0.000183 -0.547484 -0.004110
0.045566 -0.536275 0.003894
-0.006367 -0.647762 -0.003983
0.020063 -0.566264 -0.034826
0.014883 -0.613437 -0.011440
0.010327 -0.504030 -0.010505
0.013216 -0.658590 -0.038416
0.044581 -0.645500 -0.027811
0.002011 -0.671584 0.003473
-0.008763 -0.514566 -0.024487
0.002809 -0.649045 -0.000082
0.026800 -0.561346 0.033126
-0.000033 -0.552658 -0.000446
0.033644 -0.616944 0.018282
-0.008073 -0.513603 -0.004459
0.003722 -0.597709 -0.000789
0.015038 -0.654562 -0.012035
-0.010239 -0.547040 0.016615
-0.026827 -0.685616 0.007666
-0.001303 -0.531588 0.018207
0.028940 -0.663581 -0.032050
0.002017 -0.599017 -0.025147
0.001664 -0.550825 -0.009466
-0.001978 -0.663344 -0.029735
0.020195 -0.652522 -0.010413
0.017816 -0.589993 -0.047050
-0.018532 -0.671898 -0.057638
-0.034265 -0.636462 0.013377
0.037432 -0.621838 -0.023369
-0.019883 -0.576141 0.016083
0.028709 -0.646453 -0.032320
0.001884 -0.508352 0.000641
0.026741 -0.573138 -0.045006
0.000748 -0.615499 -0.006809
-0.006548 -0.515098 0.000616
0.037138 -0.573063 -0.006709
0.020132 -0.608443 0.030727
0.001525 -0.593275 -0.004189
-0.018594 -0.673799 0.002253
-0.018266 -0.648374 -0.056497
0.006794 -0.531149 -0.000076
-0.005814 -0.661121 -0.002695
-0.004856 -0.538204 0.031732
-0.004734 -0.591120 -0.002125
-0.001644 -0.563262 -0.005219
0.013895 -0.656019 0.026908
-0.002693 -0.594790 -0.006386
-0.007623 -0.534159 -0.034734
-0.017773 -0.522098 -0.034091
-0.005199 -0.556934 0.036404
-0.006904 -0.672539 0.029361
0.037626 -0.657938 0.018010
0.030559 -0.614404 -0.016239
0.001810 -0.592800 -0.001885
0.035205 -0.569031 0.011383
0.044738 -0.510852 0.002894
-0.016587 -0.509614 0.005977
-0.005818 -0.548380 0.002863
0.001005 -0.577975 -0.011504
0.022284 -0.533702 0.026752
-0.020530 -0.681149 0.036234
0.000380 -0.604572 -0.006749
0.013226 -0.501014 -0.020818
-0.012434 -0.632014 0.040056
0.007603 -0.551958 0.018753
-0.022191 -0.652038 0.000850
-0.019521 -0.631094 -0.012075
0.004617 -0.598953 -0.001183
0.036352 -0.650266 -0.022542
0.014736 -0.585660 -0.030097
0.026744 -0.552440 0.002807
0.017167 -0.583693 0.042867
0.020212 -0.653880 0.043840
0.005462 -0.615547 -0.019824
0.044591 -0.558968 -0.032198
-0.007434 -0.550335 -0.002052
0.023400 -0.557664 -0.012416
-0.044761 -0.678941 -0.028943
-0.005862 -0.571314 -0.004606
-0.001260 -0.634299 -0.042022
0.003175 -0.550098 0.012184
-0.021642 -0.680947 -0.051458
-0.000910 -0.622404 -0.010717
-0.003639 -0.679182 -0.031382
-0.007145 -0.569644 -0.004588
-0.045086 -0.552323 0.000415
-0.010154 -0.637866 0.021817
0.020229 -0.650957 -0.033024
0.011248 -0.640454 -0.011889
0.010478 -0.685123 -0.032106
0.008175 -0.632410 0.003132
0.003706 -0.664873 -0.019879
0.018908 -0.512822 -0.030185
0.005325 -0.553388 -0.039429
-0.005504 -0.544352 0.005497
0.023550 -0.538596 0.037831
-0.004847 -0.503186 0.004261
-0.000186 -0.568111 -0.029017
0.022505 -0.645800 0.023406
0.031225 -0.514816 -0.020236
-0.048397 -0.636282 0.011369
-0.000379 -0.499884 -0.003223
0.000128 -0.567256 -0.006731
-0.027626 -0.618889 0.019766
0.000013 -0.583371 -0.031717
-0.013964 -0.521540 -0.006306
-0.011620 -0.671439 -0.007503
-0.009453 -0.530094 0.037180
0.004076 -0.651527 -0.009812
0.018545 -0.545316 0.041678
-0.014323 -0.535369 -0.008341
-0.012353 -0.670799 -0.011130
-0.047121 -0.572420 -0.000320
-0.013835 -0.549321 -0.004738
0.003746 -0.595457 -0.049918
-0.008886 -0.593327 0.029389
0.041065 -0.595433 0.001605
0.008612 -0.554823 -0.037489
0.039150 -0.621041 -0.025978
0.015554 -0.563124 -0.030859
0.010310 -0.565856 -0.022240
-0.020573 -0.576166 -0.017188
-0.000940 -0.571400 -0.004212
-0.034796 -0.566842 0.015545
0.009472 -0.614954 0.005166
-0.020152 -0.575518 0.028502
-0.007437 -0.674661 -0.016680
0.031787 -0.541743 -0.044534
0.000490 -0.621033 0.009742
-0.049777 -0.685255 0.008254
0.026551 -0.561028 -0.023568
-0.009348 -0.575070 -0.010149
0.030423 -0.538395 0.021349
0.020213 -0.521255 0.002475
-0.008550 -0.642119 0.037808
0.023013 -0.610245 -0.004482
0.001374 -0.635853 0.019905
0.012224 -0.516065 -0.007108
0.032942 -0.656173 0.003327
0.000743 -0.648347 -0.039739
0.003316 -0.537401 -0.020815
0.015904 -0.547022 0.035796
0.037837 -0.662190 -0.005738
0.009458 -0.581065 0.020547
0.000343 -0.540720 -0.047237
0.009858 -0.636206 -0.010673
-0.023660 -0.588971 -0.008092
0.021298 -0.681199 -0.002484
0.004973 -0.596293 -0.033856
0.018841 -0.641786 0.028938
-0.025113 -0.509668 -0.017609
-0.002298 -0.638365 0.007456
-0.017563 -0.544945 0.003524
0.002556 -0.675181 -0.058719
0.008365 -0.534332 0.029696
-0.048611 -0.614874 0.014641
-0.000062 -0.615591 0.021367
0.008689 -0.527129 -0.033290
-0.000983 -0.578445 -0.006239
0.011179 -0.517150 -0.012854
0.002367 -0.529016 0.003240
-0.008215 -0.676315 -0.029796
-0.009486 -0.659633 -0.001005
0.013095 -0.519086 -0.003169
0.005192 -0.652113 -0.003484
-0.016736 -0.639862 0.012503
-0.032224 -0.593574 0.025101
0.026086 -0.649532 -0.035609
-0.005550 -0.638966 0.007375
-0.003334 -0.531274 0.002044
0.002476 -0.662865 -0.005896
0.001183 -0.510446 -0.010364
-0.007040 -0.683882 0.002574
0.003685 -0.597735 -0.001515
0.010413 -0.521697 -0.017323
0.009513 -0.684322 -0.035378
0.000376 -0.660881 -0.004152
-0.012431 -0.541217 -0.004365
0.001684 -0.507239 -0.031935
-0.016223 -0.656394 -0.004939
-0.008205 -0.569660 0.015217
-0.003766 -0.632044 0.013971
0.005906 -0.608131 0.014179
0.044875 -0.543312 -0.009620
0.029805 -0.614418 -0.034448
-0.034980 -0.669491 -0.027295
0.048214 -0.633696 0.005831
0.037354 -0.627434 -0.006534
0.004386 -0.677508 -0.041019
-0.004898 -0.674602 0.037349
0.022715 -0.637955 -0.012603
-0.037160 -0.598290 -0.009335
0.003988 -0.542908 -0.002285
-0.004474 -0.634657 -0.054088
0.008104 -0.517452 -0.017327
0.013516 -0.532503 0.005244
-0.020069 -0.633582 0.021165
-0.047930 -0.539906 0.006022
0.012108 -0.588199 -0.058277
0.001329 -0.545193 -0.004347
-0.010464 -0.630098 0.006419
0.041774 -0.631285 -0.019276
0.000414 -0.561710 0.022359
0.031830 -0.604262 0.025337
0.002857 -0.672037 0.034544
0.029881 -0.599130 -0.010257
-0.031791 -0.572347 -0.037339
0.032551 -0.562975 -0.009473
0.008391 -0.616371 -0.004495
0.045097 -0.551023 0.006094
0.009798 -0.525992 -0.007791
-0.011823 -0.610480 -0.029971
0.006169 -0.562385 -0.012246
-0.014626 -0.679319 0.022723
-0.035498 -0.631534 -0.006377
0.000222 -0.533291 -0.013729
0.008875 -0.555336 0.031212
-0.014578 -0.646469 0.009181
0.000893 -0.559897 -0.047434
-0.020044 -0.661494 -0.023161
-0.005112 -0.564804 -0.024444
-0.040081 -0.597098 -0.007479
0.024575 -0.667816 -0.004679
0.015821 -0.636089 -0.026340
-0.001092 -0.635588 0.034648
-0.025327 -0.685743 -0.022978
-0.013171 -0.631260 -0.002409
-0.005675 -0.607705 -0.031665
-0.001976 -0.654591 0.001905
-0.014431 -0.674402 -0.009652
0.046523 -0.524339 0.005332
-0.008604 -0.525560 -0.027297
0.026510 -0.620095 -0.017876
-0.042222 -0.686439 -0.010058
0.004040 -0.640019 -0.005169
0.000036 -0.656317 -0.002864
-0.000757 -0.647870 -0.025932
-0.039878 -0.500217 0.001285
0.053150 -0.650109 -0.011468
0.001661 -0.656879 -0.007013
-0.045412 -0.571155 -0.015783
-0.033289 -0.606274 -0.027202
0.001398 -0.499161 -0.003141
-0.003919 -0.501560 -0.010771
0.011594 -0.605353 -0.021064
0.007261 -0.568567 -0.032104
-0.004291 -0.612328 -0.044262
-0.025259 -0.605543 0.021189
-0.039779 -0.509027 -0.031022
-0.001762 -0.568822 -0.008754
-0.025663 -0.574743 -0.031066
0.000071 -0.590217 -0.011989
0.004638 -0.526708 -0.006765
0.003780 -0.552975 -0.009161
0.012943 -0.618709 -0.031822
-0.006810 -0.673513 -0.005134
0.027520 -0.528374 -0.010438
-0.008139 -0.503708 0.042457
-0.044196 -0.520630 -0.027052
-0.013594 -0.545423 -0.032795
-0.005973 -0.567378 -0.012549
0.035277 -0.611874 -0.017031
0.015360 -0.519118 -0.028657
0.000413 -0.596479 -0.019218
-0.016166 -0.656545 -0.034178
0.024526 -0.651679 0.022037
0.026411 -0.554075 -0.008513
-0.023984 -0.511826 0.001805
-0.019325 -0.524246 -0.002375
-0.006751 -0.556404 -0.008047
0.040006 -0.578455 -0.013942
0.004744 -0.663320 -0.014329
0.001350 -0.541474 -0.004733
-0.020858 -0.588313 -0.025545
-0.026571 -0.617928 0.019349
0.008743 -0.550032 -0.051734
0.024971 -0.640682 0.014623
-0.021248 -0.630296 -0.023582
0.015773 -0.622040 0.007908
0.000789 -0.627651 -0.010596
-0.025082 -0.528702 -0.029978
0.025718 -0.586182 -0.039002
-0.010021 -0.519001 -0.033569
-0.002777 -0.540122 -0.009874
0.016645 -0.516764 0.007550
-0.007734 -0.569433 -0.002214
-0.020596 -0.684252 -0.011731
0.034598 -0.515566 -0.016527
-0.001886 -0.631902 -0.005304
0.020631 -0.677553 0.001400
0.010074 -0.512613 -0.008234
-0.019119 -0.579054 0.027986
-0.031867 -0.615824 -0.018536
0.024217 -0.641462 -0.005047
0.015902 -0.568353 -0.013614
-0.050090 -0.553196 -0.004902
-0.022991 -0.559574 0.038575
0.042142 -0.644354 -0.031194
0.003725 -0.633532 0.002355
0.006538 -0.550637 0.002036
0.002336 -0.640601 -0.013876
-0.034782 -0.609074 -0.021543
0.002779 -0.618661 -0.011058
0.007287 -0.526079 0.008274
0.000386 -0.607497 -0.058175
-0.031399 -0.606025 0.010844
-0.018247 -0.572609 -0.002837
-0.030458 -0.649735 -0.006326
-0.032316 -0.593440 -0.038650
-0.029480 -0.526436 0.001312
0.002142 -0.577282 0.037088
0.010633 -0.588932 0.001142
-0.024126 -0.648223 0.015160
-0.006454 -0.586485 0.016890
0.047607 -0.632186 -0.017541
0.017604 -0.617303 -0.006279
-0.022015 -0.611038 0.037739
0.006943 -0.610511 -0.007626
-0.025804 -0.633565 0.014245
-0.024271 -0.624983 -0.012497
0.003015 -0.575974 -0.007480
0.019168 -0.500729 0.014338
0.034322 -0.666599 -0.034223
-0.002766 -0.627949 0.010335
0.013479 -0.526929 -0.034590
0.049836 -0.619816 -0.024770
-0.013234 -0.587556 -0.021029
-0.009589 -0.675469 -0.047786
-0.001536 -0.655155 -0.007958
0.022419 -0.661518 -0.010304
-0.051470 -0.560309 -0.004692
-0.048098 -0.677656 0.014776
0.002327 -0.562020 -0.009649
0.016718 -0.520868 0.002429
0.001290 -0.581596 -0.019068
0.018199 -0.663660 0.021582
0.001064 -0.500785 -0.001478
0.003692 -0.539439 -0.015081
0.017025 -0.555384 -0.001447
0.026974 -0.642728 -0.008173
-0.005705 -0.641592 -0.011161
-0.007088 -0.629338 -0.013906
-0.026303 -0.509566 -0.043270
-0.034664 -0.617521 -0.026036
0.006973 -0.665746 0.009932
0.022739 -0.602169 -0.011986
-0.015673 -0.545042 0.008661
0.000000 -0.605005 0.004393
0.039841 -0.519293 0.015591
0.000032 -0.611042 -0.013579
-0.000712 -0.629078 0.013794
0.029793 -0.650799 0.017553
0.030831 -0.679146 -0.024951
0.048166 -0.506179 0.006626
-0.000628 -0.636939 -0.000827
0.028142 -0.535371 -0.009220
-0.015521 -0.512043 -0.012820
0.026934 -0.652637 0.025507
0.031053 -0.573926 -0.019261
0.002522 -0.618238 -0.005998
0.014933 -0.573218 -0.016789
-0.027240 -0.500438 -0.012563
0.018454 -0.576011 -0.030211
0.005119 -0.677188 0.022724
0.005170 -0.638328 0.036405
0.020745 -0.541761 0.015499
-0.024510 -0.553371 -0.019412
-0.002774 -0.672469 0.032508
-0.015592 -0.567345 -0.009106
0.030022 -0.666964 -0.029126
0.008570 -0.555375 -0.017638
-0.013764 -0.561356 -0.008290
0.046942 -0.626592 -0.008994
-0.042568 -0.576836 0.014335
0.005945 -0.526160 -0.011373
0.038141 -0.642910 0.028062
-0.033229 -0.658000 -0.012420
0.038882 -0.612978 -0.005215
-0.005622 -0.617648 0.011189
0.021944 -0.503180 -0.006214
-0.004284 -0.570101 -0.000190
0.038293 -0.572366 0.013386
0.004283 -0.664486 -0.012895
0.039752 -0.649952 -0.014920
0.026899 -0.538223 0.005298
0.039065 -0.653683 -0.029110
0.054012 -0.658243 -0.009494
-0.011155 -0.566013 0.007797
-0.023227 -0.529460 -0.036048
-0.010432 -0.623198 0.029325
0.010154 -0.593390 -0.020048
-0.014678 -0.514288 -0.051965
0.001421 -0.572418 -0.007871
0.001540 -0.659075 -0.018670
0.000905 -0.577469 -0.006488
-0.008715 -0.654574 -0.003519
-0.010086 -0.558809 -0.021151
-0.017427 -0.531354 -0.054545
-0.025078 -0.557688 0.028139
-0.005966 -0.519473 -0.012926
0.032707 -0.584057 -0.018576
-0.020209 -0.622306 -0.029256
-0.002936 -0.506554 -0.016063
-0.007498 -0.553634 -0.022281
-0.046699 -0.653406 0.007985
-0.002942 -0.644484 -0.004670
0.000974 -0.672567 0.036149
0.025942 -0.521542 -0.021913
0.016189 -0.680087 -0.011692
0.005596 -0.517764 -0.000723
0.038196 -0.600040 -0.013829
-0.000595 -0.624784 -0.003362
0.001334 -0.664471 -0.007427
-0.035249 -0.511142 -0.021913
0.002598 -0.501248 0.039279
-0.002057 -0.676910 0.000521
0.000881 -0.629976 0.004948
-0.005138 -0.520835 -0.006628
0.005575 -0.602977 -0.010418
-0.001266 -0.532291 -0.007564
-0.023442 -0.620036 0.002759
-0.006457 -0.585705 -0.049002
-0.025100 -0.631625 -0.049371
-0.028821 -0.643386 -0.042847
0.038428 -0.592869 -0.031294
0.047202 -0.560196 -0.007764
0.005854 -0.513580 -0.014919
-0.003336 -0.511054 -0.010621
-0.025621 -0.585074 -0.017975
-0.017436 -0.605977 -0.000216
-0.033652 -0.594913 0.010236
0.013880 -0.636058 -0.010608
0.020270 -0.665998 0.017352
0.006871 -0.504860 0.031913
-0.008831 -0.581249 0.004855
-0.050976 -0.674454 -0.008047
-0.036073 -0.554322 -0.034704
-0.035001 -0.582217 0.017642
-0.007347 -0.593778 0.010376
0.009721 -0.583404 -0.046909
-0.012953 -0.569391 -0.000857
-0.003855 -0.653108 -0.035351
-0.033523 -0.585963 -0.000862
0.028005 -0.532109 -0.020715
0.004297 -0.504932 0.000140
0.007842 -0.505634 -0.015734
0.043721 -0.524476 -0.027844
0.023177 -0.506191 0.002776
0.001283 -0.659255 -0.006046
0.023329 -0.525107 -0.022507
0.005518 -0.512209 -0.000345
0.011711 -0.553489 -0.021232
-0.020873 -0.548200 0.035225
-0.016083 -0.628285 -0.041562
0.032909 -0.561445 0.008000
0.028718 -0.631545 -0.028435
-0.015936 -0.525024 -0.028616
-0.006792 -0.629629 -0.031028
0.011608 -0.583079 0.024277
0.010904 -0.659118 0.018447
-0.013875 -0.589871 -0.023179
-0.005068 -0.656575 -0.004534
0.038236 -0.622166 0.021050
0.003894 -0.655768 0.002730
-0.043849 -0.574960 -0.002627
0.003166 -0.647542 -0.012834
0.035068 -0.674865 0.037431
-0.010896 -0.526015 -0.018031
0.027072 -0.654657 0.032329
-0.051036 -0.597737 -0.018511
0.026367 -0.621832 0.003105
-0.020903 -0.614507 -0.035048
-0.000565 -0.538882 -0.006888
-0.002916 -0.670357 -0.014238
-0.040895 -0.667699 -0.006601
-0.025391 -0.535877 -0.050668
-0.000295 -0.655705 -0.006645
-0.045049 -0.680522 -0.022340
0.000482 -0.614957 -0.003605
-0.024138 -0.621629 0.007920
-0.041405 -0.538423 0.012534
0.012129 -0.564935 -0.012881
-0.000160 -0.569963 -0.004219
0.000074 -0.601576 0.000597
0.011008 -0.601306 0.000461
-0.000201 -0.632450 -0.004304
-0.006053 -0.639997 0.002491
-0.005152 -0.649532 0.005415
-0.030761 -0.604556 0.005377
-0.039420 -0.588574 0.026499
0.025627 -0.574405 -0.037941
0.023733 -0.653491 -0.008207
0.000321 -0.608805 -0.008223
-0.010940 -0.563523 -0.029837
-0.048373 -0.674623 -0.021327
-0.003622 -0.641422 0.005181
-0.002320 -0.614263 0.018985
0.033179 -0.581351 0.006890
0.002521 -0.570644 -0.011957
0.010535 -0.549207 0.024550
0.002486 -0.616205 0.005946
-0.021024 -0.519959 -0.002272
0.040647 -0.561105 0.007334
0.025702 -0.594653 -0.003320
-0.028025 -0.603857 -0.012855
-0.034052 -0.568293 -0.030191
-0.006573 -0.523983 -0.000567
0.032060 -0.628367 -0.030615
0.001956 -0.500885 0.010282
0.004028 -0.631027 -0.003656
-0.023510 -0.579879 -0.003422
0.000425 -0.572278 0.011325
0.001711 -0.675446 -0.006416
0.026293 -0.584840 -0.003116
-0.047811 -0.592080 -0.020104
0.031316 -0.608454 -0.006644
0.005352 -0.583833 0.016147
0.040744 -0.656892 0.005439
-0.016025 -0.605389 0.029481
0.001146 -0.532514 -0.007174
0.024318 -0.527837 -0.025661
-0.009671 -0.667566 -0.002325
0.010696 -0.543490 0.001865
0.036880 -0.640174 0.019689
-0.012596 -0.648814 -0.017010
-0.018990 -0.554846 -0.040170
0.010653 -0.500373 0.001059
-0.012154 -0.602577 -0.025959
0.038697 -0.567503 -0.030842
0.018600 -0.655677 0.027375
0.017067 -0.542511 0.014707
-0.032331 -0.533011 -0.014830
-0.009001 -0.645589 0.012887
0.031584 -0.569721 0.005172
0.001122 -0.589327 0.038210
0.027397 -0.620369 -0.019111
0.008721 -0.544591 0.019704
0.045736 -0.573551 -0.031990
-0.032754 -0.651076 -0.003514
-0.029651 -0.589773 -0.035508
0.025263 -0.521410 -0.018079
-0.016242 -0.528735 0.003993
0.005732 -0.683081 -0.038593
-0.007406 -0.599737 0.001363
-0.003566 -0.552160 -0.044557
0.004161 -0.631796 -0.008868
-0.025803 -0.574992 0.028908
0.010246 -0.652885 -0.028171
0.016739 -0.650014 -0.036671
0.003632 -0.672449 0.001407
-0.001006 -0.566453 -0.006209
0.031973 -0.547625 -0.038321
-0.046733 -0.598700 -0.008720
0.016066 -0.573942 -0.015472
-0.000103 -0.617894 -0.009753
0.017128 -0.504059 -0.008490
0.045976 -0.662518 -0.033844
0.005365 -0.533760 -0.003660
-0.009868 -0.594551 -0.020440
0.019903 -0.538521 -0.003438
0.000817 -0.524272 -0.008208
0.027692 -0.594184 -0.037812
0.013678 -0.595166 -0.006513
0.036102 -0.672856 0.025822
0.001035 -0.525664 -0.017863
-0.001794 -0.616501 -0.016217
-0.010719 -0.505956 0.005465
-0.004995 -0.614118 -0.002657
-0.004621 -0.641394 0.026996
0.020128 -0.552206 -0.012839
-0.012988 -0.624364 -0.011597
-0.039536 -0.505319 -0.011978
-0.000131 -0.598078 -0.019857
-0.016977 -0.526428 -0.006384
-0.005528 -0.577123 -0.014078
-0.026368 -0.616295 0.005807
0.001040 -0.588455 0.020780
0.043557 -0.570041 -0.025777
0.002014 -0.528354 -0.013661
0.017469 -0.612434 0.036461
0.002975 -0.623250 -0.016315
-0.007697 -0.626711 -0.007086
0.001512 -0.671907 -0.041071
-0.025451 -0.670685 -0.006354
0.000610 -0.510085 -0.003771
0.026466 -0.683837 -0.004881
-0.049964 -0.636809 0.007463
0.027909 -0.529500 -0.017356
0.022299 -0.586754 -0.000358
0.034493 -0.528382 -0.030980
0.008263 -0.581482 -0.004046
0.016688 -0.583502 -0.026028
-0.007673 -0.630315 -0.035427
0.032017 -0.629314 0.009483
-0.026036 -0.570690 -0.023181
-0.031300 -0.665305 -0.010398
0.043615 -0.655799 0.015426
0.028299 -0.551504 0.016154
-0.011330 -0.653603 -0.007966
0.002766 -0.541436 -0.004804
-0.003089 -0.643749 0.028040
0.006559 -0.523908 -0.001033
-0.017338 -0.562231 -0.025246
0.040267 -0.668412 0.013197
-0.018777 -0.685685 0.003420
0.014134 -0.501591 -0.028770
0.000356 -0.608723 0.029997
-0.016036 -0.535235 0.006466
-0.011811 -0.539050 -0.034272
-0.017117 -0.649284 -0.001228
-0.022539 -0.605647 0.013814
-0.000025 -0.532040 -0.029636
-0.005069 -0.556028 -0.009186
0.010438 -0.662712 -0.000273
-0.002827 -0.649508 0.004042
0.007438 -0.526712 -0.012368
-0.023816 -0.667164 0.015575
-0.004624 -0.645586 -0.027980
-0.002712 -0.680025 0.004073
0.000407 -0.671718 -0.028163
-0.035215 -0.650019 0.021163
0.014405 -0.509443 -0.036868
-0.014299 -0.522867 0.004947
-0.004236 -0.633006 0.019098
0.031373 -0.596297 0.011872
0.023274 -0.672047 -0.025551
-0.010249 -0.650973 -0.038902
0.034838 -0.501521 0.017264
-0.017921 -0.654532 -0.050842
-0.049895 -0.512466 -0.003092
0.008961 -0.679158 -0.001413
-0.000569 -0.552529 -0.001463
-0.040319 -0.531515 -0.038018
0.001149 -0.676611 0.008380
0.007235 -0.598775 -0.045515
0.037287 -0.669490 0.021285
-0.000918 -0.519332 -0.007087
0.051853 -0.629643 -0.023526
0.008602 -0.664435 -0.000933
0.002378 -0.661730 -0.001097
-0.000055 -0.584571 0.000396
0.035292 -0.538674 0.018868
0.035437 -0.558163 -0.007334
0.036257 -0.511693 -0.002008
0.000634 -0.563807 -0.017118
0.017200 -0.676145 -0.003957
0.001451 -0.503311 0.001647
0.007684 -0.586642 0.017645
0.006051 -0.511302 0.022573
0.038646 -0.644840 0.006467
0.014268 -0.599265 -0.010284
0.000626 -0.524030 -0.009368
0.040061 -0.616178 -0.011620
-0.011478 -0.526676 0.025658
-0.015150 -0.575320 -0.014060
-0.013084 -0.672427 0.008613
0.016730 -0.616876 0.003678
0.039477 -0.560665 -0.030894
-0.039311 -0.507554 0.009175
0.001629 -0.609999 -0.008025
0.017749 -0.507750 0.010439
0.011606 -0.568605 -0.022141
0.013747 -0.657981 -0.044942
0.030136 -0.619854 0.006192
-0.007227 -0.633451 -0.000366
0.012916 -0.609145 0.000205
-0.009494 -0.532408 -0.038275
-0.009279 -0.609020 0.006268
-0.013144 -0.596821 -0.004180
-0.019058 -0.661033 -0.036726
-0.023436 -0.589491 -0.029363
0.010919 -0.654403 0.003199
0.000223 -0.523177 -0.027419
0.041329 -0.627709 -0.001630
-0.001024 -0.609042 -0.005696
0.000622 -0.529669 0.016049
0.014054 -0.567682 -0.008365
-0.021432 -0.540405 0.021699
0.007446 -0.534557 -0.004219
0.004279 -0.563543 -0.021841
0.030140 -0.585285 0.025086
-0.051331 -0.515598 -0.010956
-0.004810 -0.562305 0.038283
0.007697 -0.659065 -0.013107
0.024535 -0.644677 0.015465
0.019676 -0.596062 0.004997
-0.000200 -0.686094 -0.008364
-0.030793 -0.658030 0.026690
-0.012266 -0.573763 -0.038405
-0.015167 -0.628369 -0.009405
0.005117 -0.558074 0.036844
-0.033790 -0.560658 0.014003
-0.019641 -0.516409 0.002837
-0.027245 -0.585315 -0.018110
-0.031988 -0.513441 0.018052
0.005849 -0.622366 -0.019598
-0.009864 -0.648518 0.003023
-0.010704 -0.624265 0.012957
0.000275 -0.659540 -0.006218
0.012796 -0.664584 -0.020371
-0.000017 -0.613890 -0.006707
-0.006225 -0.597299 -0.042680
0.031205 -0.581907 -0.012920
-0.006592 -0.593805 -0.008989
0.003411 -0.573074 -0.006818
0.005970 -0.630254 0.015072
0.031812 -0.608741 -0.016198
-0.018314 -0.578397 -0.052906
-0.000538 -0.577774 -0.002307
0.000670 -0.644299 0.004585
0.030087 -0.654429 -0.020608
0.001916 -0.508525 -0.008700
0.005216 -0.595503 0.026190
-0.003636 -0.605404 -0.010990
-0.037596 -0.510564 -0.005437
0.000194 -0.643066 -0.005887
0.021686 -0.539734 -0.003383
-0.000339 -0.575131 -0.006415
-0.030731 -0.532892 -0.002581
-0.034128 -0.673908 0.021684
0.017254 -0.565274 0.042067
-0.038268 -0.643451 -0.038796
-0.020937 -0.591478 -0.013012
0.041881 -0.614766 -0.026538
0.017315 -0.613516 -0.045745
0.001444 -0.599976 -0.005854
0.035568 -0.510014 0.012253
-0.011718 -0.682147 -0.023836
-0.006380 -0.677377 -0.015449
0.016419 -0.656804 -0.001448
0.005227 -0.599344 0.043205
0.000605 -0.619784 0.002542
-0.014713 -0.628202 0.026791
0.001615 -0.520623 -0.008551
0.022302 -0.578613 0.001194
-0.004681 -0.502552 0.038925
0.003301 -0.610129 0.038865
-0.042635 -0.638112 0.012049
0.050483 -0.662236 0.005901
0.001735 -0.578073 -0.010141
-0.027758 -0.528420 -0.012057
-0.039018 -0.669099 -0.034435
-0.009048 -0.634343 -0.001756
-0.000453 -0.522164 -0.011425
-0.009627 -0.625766 -0.040679
-0.001926 -0.580486 0.027345
-0.002020 -0.531662 -0.004975
-0.016471 -0.519583 -0.008169
-0.013612 -0.620001 -0.024898
0.001489 -0.678836 -0.006693
-0.024837 -0.684563 -0.045882
0.034634 -0.513876 0.026729
0.000500 -0.501223 0.004625
0.005296 -0.548926 -0.005790
0.021825 -0.586313 -0.014856
-0.010526 -0.541066 0.044104
-0.027791 -0.514262 -0.039572
-0.031506 -0.516090 -0.027235
-0.001203 -0.542240 -0.003120
0.003862 -0.584663 -0.011429
0.004359 -0.613549 -0.012150
0.001903 -0.542207 -0.007053
0.003331 -0.678484 -0.005735
0.013319 -0.589909 -0.045308
-0.004327 -0.672322 -0.021697
0.000647 -0.630774 -0.002306
-0.002485 -0.656288 0.048573
-0.044964 -0.674000 0.013700
-0.006343 -0.633098 -0.042633
-0.007781 -0.511386 -0.016034
-0.031611 -0.575320 -0.013103
-0.016131 -0.665442 0.005589
-0.014377 -0.577486 0.010442
-0.023577 -0.633502 0.038518
0.000702 -0.669146 -0.006461
-0.000713 -0.623606 0.010395
0.009399 -0.578232 0.016505
0.010025 -0.565762 0.019852
-0.008532 -0.606427 0.036932
-0.032086 -0.633906 -0.031396
-0.013253 -0.638976 0.006947
0.003823 -0.620892 -0.031629
-0.001721 -0.594567 -0.004784
0.017062 -0.561999 -0.010579
0.022302 -0.573323 -0.002948
0.038672 -0.528521 -0.003911
-0.004349 -0.657889 -0.023931
0.006753 -0.599345 0.045588
-0.007779 -0.558855 -0.026662
0.024543 -0.577352 -0.033847
0.038732 -0.554084 0.023674
0.000431 -0.604874 -0.022272
-0.007581 -0.583296 0.034312
0.004766 -0.669818 0.018417
0.002236 -0.580919 -0.008242
-0.046938 -0.677010 0.003694
-0.001172 -0.526451 -0.009034
-0.017775 -0.662952 0.014143
-0.008216 -0.511147 -0.000903
0.040710 -0.578681 -0.010751
-0.007511 -0.504970 0.016104
-0.028339 -0.551395 0.031427
0.021063 -0.509240 0.001225
-0.003258 -0.645439 0.023228
0.002046 -0.531753 -0.011843
0.000790 -0.525417 -0.015114
0.000543 -0.563758 -0.007244
0.003715 -0.539002 -0.012912
-0.002849 -0.518068 -0.003618
0.020603 -0.607769 0.022151
-0.024357 -0.569511 0.015015
0.014729 -0.540788 -0.016083
0.016676 -0.644614 -0.005739
-0.025249 -0.602395 -0.014609
0.019490 -0.662346 -0.005725
0.007168 -0.526775 -0.012824
-0.003603 -0.599277 -0.051534
-0.005056 -0.663459 -0.040442
-0.024395 -0.633287 -0.020188
-0.049941 -0.568162 -0.007406
0.017614 -0.545225 -0.030690
0.002652 -0.622049 0.012424
0.022618 -0.528990 -0.025223
-0.001310 -0.537887 -0.007582
0.007264 -0.631675 -0.001363
-0.000701 -0.518421 -0.007010
-0.020963 -0.562487 -0.019714
-0.000509 -0.603170 -0.038227
0.036379 -0.616787 0.024764
-0.023166 -0.617872 -0.020467
-0.007999 -0.683226 -0.017337
0.031332 -0.632335 0.006765
-0.005667 -0.519106 -0.029461
0.007305 -0.538679 0.003001
0.022206 -0.651413 0.014110
0.021029 -0.515822 -0.010601
0.004254 -0.532193 -0.007712
-0.028396 -0.578093 -0.007643
0.038853 -0.504643 -0.030795
0.013078 -0.520275 -0.003680
-0.015379 -0.546008 -0.009212
-0.000723 -0.650922 0.025461
-0.014953 -0.504101 -0.026677
0.004875 -0.623823 0.007142
0.022434 -0.552575 -0.012257
-0.016509 -0.641327 0.001977
0.008896 -0.541945 -0.006837
0.032548 -0.542342 -0.028679
-0.025847 -0.620027 0.022585
-0.031335 -0.533173 0.000747
0.006889 -0.536841 0.010555
0.025778 -0.678527 -0.025085
-0.011621 -0.519493 0.017902
0.027284 -0.650536 -0.045702
-0.026360 -0.550079 -0.021622
0.027163 -0.535499 0.025213
0.007248 -0.629325 -0.037623
-0.015174 -0.518056 -0.018046
0.023882 -0.679697 -0.038740
0.023132 -0.671762 0.013777
-0.017038 -0.613351 -0.007027
0.010889 -0.499039 0.007445
-0.010957 -0.651782 -0.013774
0.021050 -0.527840 0.001698
0.002603 -0.543063 0.002099
-0.037151 -0.662686 -0.044537
0.004796 -0.527136 -0.020835
0.001415 -0.546101 0.002897
0.008730 -0.610332 -0.015386
0.008085 -0.538347 0.006176
-0.025355 -0.539568 -0.032695
-0.010461 -0.658582 0.030001
0.045759 -0.674201 -0.026423
-0.017850 -0.592453 -0.040493
0.004052 -0.535072 0.017927
0.031166 -0.557700 0.001392
0.024302 -0.615166 0.002373
0.001217 -0.563133 -0.018021
-0.028869 -0.632001 -0.022444
-0.013293 -0.567152 0.010443
0.010261 -0.590391 -0.002989
-0.012138 -0.552772 0.006875
-0.009335 -0.633278 -0.026094
0.016231 -0.664782 -0.054403
0.035023 -0.611561 0.011461
-0.018203 -0.526036 -0.018147
0.042833 -0.628966 -0.013363
-0.022965 -0.679635 -0.007111
-0.010330 -0.506389 0.029270
-0.008654 -0.666264 -0.024104
-0.001955 -0.582119 0.040239
0.029022 -0.556020 0.004584
-0.010653 -0.588997 -0.052306
-0.017137 -0.643845 0.045205
-0.016171 -0.564327 0.006337
-0.006128 -0.580798 -0.018442
-0.001975 -0.668768 0.024452
-0.031312 -0.670139 -0.003064
0.029889 -0.629607 0.001861
-0.012130 -0.661231 0.027854
0.011606 -0.615247 -0.010903
0.043934 -0.531702 0.009173
-0.022120 -0.572069 -0.000671
-0.030980 -0.535215 -0.022587
-0.015001 -0.514227 -0.014590
0.018163 -0.545253 0.035128
0.044140 -0.501296 -0.027681
-0.000772 -0.685787 -0.003656
0.004385 -0.600039 -0.025525
0.003549 -0.563790 0.019139
-0.042943 -0.646344 -0.025271
-0.020902 -0.562078 0.023472
-0.015029 -0.553811 -0.000201
0.006310 -0.567285 -0.006757
-0.000940 -0.581556 -0.004778
0.039731 -0.521368 -0.001170
0.026367 -0.601810 0.026214
0.019839 -0.578242 0.029777
0.011060 -0.630982 0.002028
-0.000504 -0.580092 -0.054170
0.000270 -0.591495 -0.000514
-0.029244 -0.562542 0.021980
-0.011318 -0.549697 -0.029735
-0.003513 -0.642378 -0.001365
0.000882 -0.611218 0.030323
0.006875 -0.521395 0.020937
0.000585 -0.641675 -0.006038
-0.019890 -0.580103 -0.030297
0.027139 -0.506024 -0.042172
-0.017841 -0.552512 -0.022291
-0.010383 -0.505650 -0.054891
-0.025595 -0.669329 -0.027177
0.007582 -0.514625 -0.022870
-0.015840 -0.676934 0.021367
0.011919 -0.628961 0.046015
-0.044608 -0.575012 -0.016411
0.005204 -0.558102 -0.007665
0.035062 -0.583145 -0.014737
-0.024115 -0.650245 0.017802
-0.018082 -0.671369 -0.006084
0.015033 -0.524212 -0.001743
0.017387 -0.543414 0.005372
-0.017073 -0.604747 -0.004064
0.014020 -0.573818 0.007914
-0.034624 -0.521219 -0.016607
-0.014254 -0.526878 -0.012264
-0.017192 -0.615323 -0.055603
-0.023092 -0.514375 -0.021396
0.036030 -0.677677 -0.025629
-0.007406 -0.677438 0.037116
0.032176 -0.592718 -0.021491
-0.017325 -0.517349 -0.020785
0.013555 -0.512079 0.034541
0.017475 -0.629601 -0.024861
-0.017609 -0.637814 -0.004574
0.004410 -0.648235 -0.016471
-0.030440 -0.684687 -0.009182
-0.025256 -0.514080 -0.014366
0.028813 -0.591071 -0.001380
-0.012822 -0.550399 0.021343
-0.003846 -0.630542 -0.007068
0.037293 -0.650424 -0.047081
-0.045949 -0.594160 0.010068
-0.009192 -0.661941 -0.012664
0.019470 -0.658172 0.013330
0.007935 -0.527063 -0.041419
-0.030681 -0.529987 -0.026900
0.031694 -0.537263 -0.003693
-0.005996 -0.636372 -0.007090
0.045726 -0.600965 -0.013814
-0.005648 -0.605603 -0.001049
-0.004068 -0.673470 0.012126
-0.014261 -0.662782 0.037473
-0.038605 -0.679174 0.030033
0.004022 -0.609177 -0.001072
-0.022831 -0.663438 -0.054045
0.046488 -0.679241 -0.009583
-0.007392 -0.588728 0.024591
-0.022853 -0.592140 -0.046804
-0.015890 -0.680264 -0.010397
-0.015582 -0.658478 -0.044251
-0.043014 -0.620290 -0.014851
0.019746 -0.582103 0.039859
-0.029993 -0.560582 0.035791
-0.014393 -0.683598 0.009563
-0.001910 -0.528597 0.020289
-0.006357 -0.619517 0.023120
-0.004189 -0.579616 -0.006057
0.023188 -0.610151 -0.028741
0.034324 -0.616634 -0.005169
-0.016223 -0.651516 -0.045058
0.007717 -0.656231 -0.009361
0.029391 -0.596702 0.015863
0.010544 -0.568028 0.008934
0.009447 -0.544579 0.009971
0.002787 -0.686282 -0.018027
0.003486 -0.645825 0.024967
-0.002434 -0.641722 -0.013268
-0.024148 -0.524869 -0.022635
0.050346 -0.618020 -0.004969
-0.003126 -0.652584 -0.002279
-0.011182 -0.545293 -0.015551
-0.039272 -0.658399 -0.000366
0.005629 -0.592995 -0.025833
-0.006726 -0.530120 -0.004233
0.006572 -0.579073 -0.004007
0.009695 -0.529629 -0.021600
-0.004922 -0.562183 0.023649
0.016186 -0.579057 0.011042
-0.037356 -0.674090 -0.028934
-0.026172 -0.651518 -0.053376
-0.037069 -0.671245 -0.021299
-0.011743 -0.665852 0.041790
-0.020114 -0.533409 -0.013172
0.004741 -0.520370 0.003715
0.042754 -0.624609 0.005787
0.027166 -0.502306 -0.023880
-0.014099 -0.647518 -0.013196
0.046321 -0.577486 -0.011636
-0.049064 -0.594258 -0.016920
-0.000503 -0.624263 -0.013599
-0.000561 -0.635031 -0.018178
0.017830 -0.595452 -0.008382
0.007303 -0.604378 -0.002505
-0.001011 -0.543306 -0.008414
-0.017786 -0.645103 -0.000751
-0.010906 -0.535017 -0.021142
0.028339 -0.546671 -0.005487
-0.001075 -0.637105 -0.012989
0.016758 -0.642711 -0.036602
0.040665 -0.683473 -0.042428
-0.000732 -0.539330 -0.018825
-0.037430 -0.629887 -0.012881
0.002267 -0.551086 0.000741
0.046408 -0.585035 0.009058
0.007367 -0.576747 -0.005773
-0.026689 -0.605025 -0.049505
-0.015794 -0.511822 0.025104
0.006000 -0.549436 -0.056297
-0.005738 -0.609997 -0.014359
0.012725 -0.680520 -0.004785
0.046921 -0.538311 0.012887
0.007188 -0.543648 -0.020029
0.002070 -0.674042 -0.005606
0.029025 -0.589420 -0.012804
0.005619 -0.499293 -0.004939
0.024698 -0.528689 -0.022494
0.029156 -0.681568 -0.012329
-0.002126 -0.544839 0.005499
-0.014144 -0.571131 0.024440
0.027047 -0.667228 0.021253
0.022551 -0.585249 -0.017247
0.012744 -0.647195 -0.010689
-0.008952 -0.575609 -0.019215
-0.027840 -0.662817 -0.039979
0.036878 -0.576905 0.015214
0.035067 -0.653822 -0.017413
-0.025113 -0.553815 0.018030
0.014035 -0.510562 -0.023086
-0.000280 -0.663405 -0.007914
0.007917 -0.593656 -0.007415
-0.011172 -0.673649 0.029513
0.025104 -0.568702 -0.046353
-0.019149 -0.596965 -0.023368
-0.013462 -0.621786 0.023471
-0.010333 -0.543876 -0.007619
-0.004618 -0.627570 -0.025370
0.004166 -0.603568 -0.005123
0.000992 -0.672221 -0.005719
0.005798 -0.508826 -0.008779
0.029515 -0.598406 -0.023515
0.005309 -0.561803 -0.042957
0.015508 -0.624598 0.003264
0.013908 -0.645187 0.035859
-0.000846 -0.611677 -0.014361
0.038524 -0.612818 0.024834
0.011965 -0.651436 -0.012394
-0.033226 -0.568864 -0.018384
-0.038798 -0.547115 -0.002152
-0.036022 -0.632541 0.000860
-0.004835 -0.522334 0.000114
-0.011785 -0.573487 -0.048673
0.010203 -0.683435 -0.005558
-0.007144 -0.627765 -0.024912
0.032800 -0.668181 -0.035118
-0.000562 -0.595087 -0.015047
0.009816 -0.672737 -0.023419
-0.043281 -0.683213 -0.036861
0.037728 -0.677976 -0.023729
0.001758 -0.672215 -0.005484
-0.047537 -0.641609 -0.004276
-0.012291 -0.679171 0.017677
-0.026800 -0.587288 -0.008071
-0.026524 -0.621339 0.028843
0.045754 -0.504304 -0.011970
0.004667 -0.547834 0.013829
0.024931 -0.607376 0.001888
-0.006428 -0.625488 -0.032544
-0.004062 -0.517930 -0.034666
0.034908 -0.644950 -0.004573
0.048160 -0.643111 -0.007712
0.038740 -0.611577 0.023489
-0.017094 -0.613807 -0.021452
