ply
format ascii 1.0
element vertex 1672
property float x
property float y
property float z
end_header
-0.011116 0.049979 0.000353
-0.003474 0.046513 -0.002276
-0.011434 0.079200 -0.010301
-0.007823 0.043967 0.002358
-0.003722 0.034423 0.016830
-0.004844 0.062900 0.011189
-0.014461 0.079458 0.002925
-0.019712 0.045969 -0.000018
-0.011586 0.038793 0.013292
0.005090 0.085312 0.010983
-0.005559 0.068165 -0.005032
-0.005738 0.044877 -0.010176
-0.022972 0.035856 0.009807
0.005198 0.061196 0.004711
0.001407 0.076780 -0.013192
-0.011888 0.044540 0.010197
-0.012849 0.049892 -0.002541
-0.020268 0.048826 0.008564
0.001334 0.060520 0.003552
-0.018146 0.079270 -0.011063
-0.013766 0.059018 -0.004432
-0.020174 0.044222 0.012158
-0.009659 0.044423 -0.010804
-0.010827 0.070304 0.001987
-0.011859 0.049827 0.001903
-0.010369 0.061535 -0.004929
-0.024257 0.052470 0.005489
-0.011570 0.059082 0.020872
-0.008000 0.078777 -0.010749
-0.009629 0.073627 0.005928
-0.019181 0.061281 -0.017127
-0.011628 0.070005 -0.000344
-0.005434 0.054466 -0.003170
-0.011107 0.067576 0.000258
-0.007891 0.066986 0.007463
-0.001409 0.053983 0.021136
-0.005254 0.103382 -0.004554
-0.024920 0.112573 0.007689
-0.025970 0.098936 -0.004206
-0.004646 0.112746 0.002551
-0.011637 0.103666 -0.004185
0.002207 0.107801 -0.011235
-0.007387 0.088875 -0.006219
-0.028938 0.094646 -0.008933
-0.023525 0.108673 -0.004125
-0.001554 0.125117 0.011583
-0.009587 0.104059 0.003175
0.002901 0.110750 -0.016791
-0.007254 0.110122 0.001175
-0.031571 0.126657 0.005427
-0.005521 0.117336 -0.004750
0.004254 0.099954 -0.012214
-0.001454 0.128792 0.012361
-0.009750 0.126180 -0.005204
0.001931 0.127309 0.001292
-0.025049 0.096612 -0.004291
-0.013876 0.111929 -0.004346
-0.015448 0.095327 0.010042
-0.015025 0.113333 0.000525
-0.009161 0.117758 -0.002568
0.004360 0.098669 0.008260
-0.013791 0.123800 -0.008023
-0.008061 0.096041 -0.005470
-0.011198 0.122026 -0.004066
-0.011340 0.098106 -0.003765
-0.004345 0.098689 -0.004480
-0.018806 0.093185 0.015687
-0.011201 0.103239 0.001119
-0.027898 0.109401 -0.012300
-0.019278 0.087287 0.005783
-0.005655 0.107262 0.014192
-0.014993 0.096137 0.012472
-0.013583 0.124135 -0.003313
0.001331 0.105879 -0.014991
-0.010544 0.094847 -0.005940
-0.013859 0.119096 -0.012704
-0.025301 0.127290 0.004478
-0.012472 0.096147 -0.002571
-0.011263 0.093247 0.011043
-0.024406 0.098169 0.005572
-0.010512 0.113674 -0.007503
-0.003541 0.124437 -0.006101
-0.009309 0.099151 0.004746
-0.009271 0.127635 0.013741
-0.013752 0.115360 -0.002240
-0.009745 0.105841 0.014688
-0.008526 0.110488 -0.020185
-0.011458 0.113203 -0.001856
-0.008351 0.125165 -0.000861
-0.021027 0.083902 0.003918
-0.015201 0.115348 -0.008084
-0.013703 0.095629 -0.002153
-0.003008 0.110281 -0.005432
-0.020865 0.122440 -0.007651
-0.010077 0.084859 -0.004874
-0.015699 0.097020 -0.014126
-0.008429 0.085569 -0.005332
0.004679 0.103821 -0.000247
0.000128 0.123343 -0.008292
-0.020944 0.125972 -0.016091
-0.005707 0.120156 -0.000075
-0.008488 0.122536 -0.015914
-0.013417 0.102068 -0.006833
-0.011207 0.099155 -0.001729
-0.009752 0.088540 -0.004195
-0.014588 0.125159 -0.010956
-0.008404 0.110900 0.003905
0.005985 0.089052 -0.000174
-0.012155 0.113216 0.010090
-0.023132 0.105076 -0.007820
-0.008434 0.126629 -0.008590
-0.016797 0.112663 -0.003016
-0.004101 0.106203 -0.013026
-0.023462 0.117216 -0.019868
-0.012030 0.104377 -0.003219
-0.030238 0.092940 -0.006740
-0.007193 0.110720 0.006286
-0.007374 0.087417 -0.014746
-0.006897 0.099740 -0.002778
-0.022253 0.096268 0.006842
-0.008458 0.125900 -0.015660
-0.019337 0.126022 -0.001989
-0.013863 0.111269 0.012550
-0.017003 0.104093 -0.012360
-0.011881 0.100570 -0.023131
-0.011775 0.100032 -0.006669
-0.006892 0.115815 -0.017927
-0.017567 0.102881 0.013104
-0.014090 0.125703 -0.006281
-0.019173 0.086116 -0.003929
-0.009866 0.118358 -0.009766
-0.011178 0.120741 0.002331
0.006291 0.088378 -0.011464
-0.010796 0.125055 0.003086
-0.018622 0.113642 -0.016769
-0.011899 0.104404 -0.004031
-0.024854 0.089824 -0.009545
-0.010012 0.100590 -0.006008
-0.008947 0.090962 -0.002745
-0.008585 0.090759 -0.004902
-0.031433 0.119919 0.001920
0.000390 0.092271 0.006776
-0.005118 0.118040 -0.017055
0.002828 0.088772 -0.006856
-0.018427 0.124202 -0.008031
0.001770 0.115774 -0.010324
0.001806 0.113227 -0.016169
-0.007830 0.098648 0.001508
-0.004629 0.121265 -0.003861
-0.002100 0.105092 -0.009340
-0.010786 0.106938 -0.010934
-0.005182 0.125434 -0.010450
-0.010580 0.110769 0.002066
-0.017283 0.090367 -0.000695
-0.008697 0.086134 -0.007506
-0.031580 0.110563 -0.001273
-0.012960 0.095467 -0.013893
-0.005832 0.112625 -0.019481
-0.023594 0.089820 -0.006625
-0.011974 0.118122 -0.002008
-0.022345 0.105334 -0.009755
-0.008532 0.089898 0.007128
-0.012221 0.103720 -0.004349
-0.016099 0.106355 -0.001429
-0.006936 0.094315 0.000261
0.002197 0.096282 -0.015649
-0.007827 0.086163 -0.003219
-0.027960 0.116008 0.001013
-0.025802 0.114634 -0.016677
0.002935 0.089388 -0.003443
-0.007943 0.084968 -0.004107
-0.013831 0.097810 0.001197
-0.001795 0.090450 -0.013956
-0.009934 0.093261 -0.006207
-0.019149 0.110706 -0.007250
-0.018371 0.094554 0.007720
-0.026690 0.117897 -0.001941
-0.018886 0.121252 0.002488
-0.014018 0.116487 -0.004516
-0.010834 0.095181 -0.006415
-0.010961 0.122146 -0.000696
-0.000203 0.086052 -0.002092
-0.010321 0.114567 -0.015472
0.000547 0.103243 0.008241
-0.003475 0.099450 -0.005058
-0.023078 0.105205 -0.010195
-0.003842 0.108315 -0.004141
-0.015232 0.113784 0.000877
0.007294 0.110121 -0.007732
-0.008331 0.097751 -0.005604
-0.012833 0.114673 -0.003637
-0.011475 0.092392 -0.003186
-0.000810 0.126419 0.004306
-0.013373 0.098014 -0.002974
-0.015396 0.122671 -0.011974
-0.022682 0.118899 0.013468
-0.013393 0.098433 -0.011739
-0.012755 0.106497 -0.001555
0.000618 0.087548 0.004421
-0.001412 0.115824 0.012384
0.000161 0.106396 -0.005714
0.003435 0.104851 -0.008503
-0.001407 0.123705 -0.010891
-0.007745 0.124224 0.016654
0.001180 0.115860 0.007875
-0.018356 0.122023 -0.015600
-0.008311 0.113886 -0.022735
-0.019482 0.121974 0.003670
-0.013265 0.096488 0.006965
-0.014195 0.112655 -0.005993
-0.009983 0.092569 -0.016095
-0.012630 0.118079 -0.002385
-0.028011 0.098967 0.006608
-0.013221 0.113887 -0.019649
-0.009327 0.087661 -0.012295
-0.007937 0.124969 -0.006054
-0.019575 0.112012 0.015824
-0.024455 0.118265 0.009468
-0.008741 0.084894 -0.003467
-0.027781 0.121366 0.000951
-0.018545 0.111300 0.014698
-0.019296 0.126046 -0.015733
-0.023807 0.085017 -0.018981
-0.014379 0.120490 -0.017151
0.002688 0.110743 -0.006589
-0.023699 0.089754 -0.004550
-0.010573 0.100347 0.002095
-0.012111 0.106826 -0.002702
-0.010922 0.088126 -0.002786
-0.025662 0.089642 0.008145
-0.014962 0.099883 -0.012741
-0.007531 0.092941 -0.011472
-0.005588 0.087737 0.005968
-0.010875 0.122170 0.002166
-0.029199 0.100193 -0.006059
-0.004826 0.101906 -0.022895
-0.009818 0.114914 0.003310
0.002667 0.126830 -0.010104
0.003057 0.128838 -0.012927
-0.013030 0.132232 -0.004293
-0.004142 0.165278 -0.003913
-0.024664 0.154316 -0.004151
-0.000906 0.167117 0.002489
-0.021380 0.140860 -0.009856
-0.021771 0.140479 0.012797
-0.016945 0.169256 -0.003088
-0.032636 0.142745 -0.003361
-0.003588 0.164865 0.010582
-0.020748 0.149231 0.011061
-0.029669 0.134161 0.006551
-0.022165 0.154167 0.009073
-0.005600 0.152524 -0.006347
-0.015435 0.169941 0.001672
-0.016674 0.165154 -0.014487
-0.007635 0.130731 0.013967
-0.021002 0.131740 0.013110
-0.010825 0.130811 -0.002298
-0.012634 0.144331 -0.002891
-0.014081 0.151157 0.006939
-0.024651 0.154981 -0.000079
-0.016397 0.160220 -0.005307
-0.010114 0.141464 -0.019693
-0.025900 0.148473 0.006408
-0.000670 0.139111 0.002178
-0.026818 0.152631 0.000252
-0.025508 0.159745 -0.011409
-0.014957 0.136163 -0.020436
-0.016180 0.151541 -0.005360
-0.026175 0.161201 -0.007165
-0.005681 0.161629 -0.002717
-0.014036 0.159011 -0.002380
-0.009461 0.146940 0.003947
-0.025098 0.151714 0.008852
-0.014053 0.168488 -0.004669
-0.001342 0.169151 -0.011182
-0.008770 0.165745 0.003686
-0.022434 0.156379 0.002738
-0.014984 0.152266 -0.004938
-0.027923 0.150995 0.006669
-0.017621 0.169629 -0.015811
-0.018678 0.132708 0.004315
-0.012146 0.145273 0.014305
-0.008802 0.149771 -0.010560
-0.005762 0.146168 -0.004739
-0.009429 0.129590 -0.009556
-0.010853 0.142419 0.001340
-0.011797 0.145701 -0.022126
-0.009041 0.141528 0.005447
0.006160 0.144248 0.002697
-0.001830 0.136996 0.013281
-0.014454 0.143823 -0.003083
-0.003738 0.153533 -0.002346
-0.001757 0.139483 0.012776
-0.012621 0.161144 -0.011249
-0.019119 0.146830 0.002335
0.001997 0.158703 -0.002128
-0.012971 0.148419 -0.006451
-0.007718 0.160963 -0.011156
-0.024569 0.139165 0.010324
-0.013517 0.152399 -0.002701
-0.018815 0.154360 0.002006
-0.014052 0.132452 -0.003030
-0.009205 0.146134 -0.007754
-0.012485 0.135974 -0.004256
-0.023633 0.141229 -0.004128
-0.008668 0.159937 -0.000763
-0.022445 0.150002 0.007304
-0.011670 0.135294 0.006783
-0.012066 0.140663 -0.018381
-0.007965 0.145759 -0.006465
-0.000964 0.149786 -0.017238
-0.031220 0.158393 0.002081
-0.021006 0.142434 -0.000093
-0.005511 0.165735 0.005381
0.002475 0.164531 0.004349
-0.024432 0.140925 -0.009878
-0.014498 0.145638 -0.001584
-0.016000 0.156861 -0.007516
-0.006104 0.145245 0.005251
-0.027949 0.169907 0.005743
-0.005749 0.153493 0.003246
-0.011980 0.155360 -0.000036
-0.011659 0.157726 0.006202
-0.009883 0.130659 -0.010744
-0.013315 0.147790 0.002244
-0.022520 0.144487 0.003223
-0.008693 0.149534 -0.022398
-0.019319 0.144163 -0.014971
-0.013117 0.158227 -0.003148
-0.012196 0.161268 -0.003747
-0.003459 0.134981 -0.011287
-0.017588 0.146932 -0.000621
-0.010378 0.157112 0.015408
-0.013306 0.143303 -0.003517
-0.017803 0.153181 0.004212
0.002563 0.155826 0.002481
-0.019958 0.144962 -0.003598
-0.027443 0.137920 -0.007403
-0.006412 0.140195 -0.007861
-0.009505 0.166230 -0.006171
-0.008442 0.149626 -0.008826
-0.012223 0.153289 0.012028
-0.003288 0.163367 -0.004456
0.003212 0.152943 -0.001087
-0.004843 0.159492 -0.002539
-0.014827 0.136764 -0.003907
-0.014203 0.136212 -0.012600
-0.025172 0.134709 0.003623
-0.015731 0.157839 -0.021427
-0.020641 0.142600 0.012019
-0.007587 0.167617 0.001196
-0.009394 0.136800 -0.022314
0.002826 0.157019 -0.002580
-0.021267 0.136495 -0.005832
-0.012813 0.155304 -0.006191
-0.016673 0.152658 0.001614
-0.015976 0.142454 0.006350
-0.005716 0.145064 -0.013510
-0.012238 0.136074 0.002988
-0.017133 0.143379 0.008962
-0.023777 0.158424 -0.001247
-0.002384 0.145344 0.008100
-0.009425 0.165407 0.005291
-0.023511 0.163785 0.002192
-0.007233 0.152685 -0.001932
0.001802 0.157832 -0.012663
-0.014995 0.166932 -0.005458
-0.003339 0.151630 0.003267
-0.026836 0.164160 -0.002258
-0.013047 0.130471 -0.001649
-0.030196 0.132303 -0.007605
-0.009108 0.145984 -0.004490
-0.011793 0.157956 -0.001795
-0.017047 0.160859 -0.021211
-0.003704 0.137686 0.000595
-0.011658 0.161862 -0.008108
-0.009865 0.157732 -0.005126
-0.015301 0.133127 -0.018487
-0.007165 0.133068 0.006283
-0.023016 0.146958 0.003424
-0.018138 0.144742 0.008877
-0.013365 0.166142 -0.003693
-0.019533 0.138141 0.011518
-0.009632 0.169610 0.006628
-0.016655 0.146696 0.011755
-0.011962 0.134791 -0.015222
-0.017741 0.158758 -0.004850
-0.018557 0.148897 0.001595
-0.017131 0.162561 -0.011470
0.001643 0.165293 0.007041
-0.019537 0.132865 -0.003875
-0.011460 0.131481 -0.006159
-0.011043 0.138850 -0.011043
-0.005417 0.149917 -0.002134
-0.028238 0.159519 -0.001866
-0.017063 0.147281 -0.022273
-0.005075 0.144867 0.007378
-0.010995 0.149596 -0.005479
-0.032897 0.143758 -0.003915
0.004067 0.157669 -0.000343
-0.000194 0.157062 0.010346
0.000133 0.141591 -0.018951
-0.015910 0.129866 -0.008103
-0.018088 0.149031 0.011021
-0.004321 0.148553 -0.007914
-0.000414 0.182100 0.008621
-0.010225 0.195210 -0.000260
-0.027581 0.178465 -0.007250
-0.014349 0.178683 -0.002536
-0.027981 0.197623 0.000174
-0.021386 0.170467 -0.009202
-0.022842 0.195253 -0.019711
-0.022667 0.187176 -0.019331
-0.018733 0.196606 -0.002046
-0.021832 0.177228 -0.018038
-0.011122 0.193961 -0.003515
-0.012413 0.207771 0.007199
0.004177 0.205017 -0.014773
-0.010097 0.210274 -0.005187
0.003782 0.171853 -0.008180
0.001892 0.210485 0.001142
-0.022891 0.203275 -0.007557
-0.026608 0.196153 -0.019046
-0.015814 0.200309 -0.018464
-0.019353 0.196723 0.008976
-0.020699 0.209165 -0.004255
-0.014297 0.179281 0.001698
-0.016305 0.201886 -0.008113
-0.015134 0.177149 -0.006362
-0.016546 0.199820 -0.004057
-0.015722 0.175822 -0.005787
-0.012287 0.175607 -0.004755
-0.003700 0.172206 0.007240
-0.007054 0.204257 0.000816
-0.014128 0.170178 -0.003663
-0.012866 0.172580 -0.004975
-0.010318 0.181322 0.000657
-0.011108 0.178341 -0.005594
-0.015039 0.174285 -0.008064
-0.030342 0.178398 0.001098
-0.011362 0.175974 -0.001483
-0.007273 0.209141 -0.007233
-0.006370 0.182783 -0.006081
-0.012467 0.197437 -0.003642
-0.012290 0.196973 -0.008777
-0.014766 0.191233 -0.008714
-0.020805 0.203512 -0.010579
-0.014594 0.190766 0.007353
-0.007229 0.185207 0.009504
-0.012222 0.185786 -0.005082
-0.009942 0.197649 -0.007187
-0.011486 0.177267 -0.006139
-0.020458 0.199120 -0.007047
-0.012272 0.209831 -0.005763
0.000427 0.200078 0.000098
-0.007361 0.193357 -0.007929
-0.012610 0.190550 -0.007843
-0.013226 0.201024 0.005114
-0.027774 0.170554 -0.012437
-0.011076 0.194351 -0.012122
-0.012001 0.177083 -0.004489
-0.015005 0.205543 -0.009857
-0.029662 0.204662 -0.011332
0.000058 0.178231 0.007798
-0.001071 0.194862 -0.002970
-0.012861 0.177041 -0.000750
0.000702 0.208502 -0.007020
-0.005936 0.177007 -0.009949
-0.013560 0.175095 0.004988
-0.013472 0.203726 -0.005271
-0.007276 0.192323 -0.005571
-0.009437 0.186627 -0.005303
-0.012119 0.185039 -0.005328
-0.009931 0.200310 -0.008912
0.002951 0.178814 -0.005629
-0.025362 0.188373 0.007478
-0.006415 0.209493 0.008685
-0.013787 0.192479 -0.005636
-0.009325 0.201898 -0.005352
-0.012808 0.208582 -0.007273
-0.022869 0.188054 -0.004692
-0.009941 0.210823 0.010892
-0.006875 0.197537 -0.003116
-0.010707 0.181913 -0.004120
-0.008582 0.202571 -0.010642
-0.000965 0.208943 0.000225
-0.003985 0.181097 0.004982
-0.012045 0.180871 -0.000612
-0.003685 0.200404 0.010411
0.005514 0.195812 -0.006835
-0.005095 0.196123 -0.006676
-0.018720 0.207464 -0.004431
-0.012406 0.183880 -0.004863
-0.008898 0.202360 -0.002096
-0.010275 0.186826 -0.004386
-0.012508 0.203484 -0.007595
-0.006657 0.177969 -0.002835
-0.020382 0.188637 0.001484
-0.010499 0.202092 -0.002130
-0.006269 0.183310 0.011128
-0.013075 0.203699 0.003322
-0.006702 0.205173 -0.012955
-0.027434 0.206292 -0.009786
-0.022924 0.180532 -0.005826
-0.008430 0.200719 0.011923
-0.000082 0.189343 0.004038
0.005064 0.207986 -0.000134
-0.010993 0.170142 -0.012049
-0.011318 0.184442 -0.000846
-0.003030 0.196641 -0.008475
-0.007373 0.207051 -0.004252
-0.015736 0.191421 -0.006815
-0.010976 0.190683 -0.004365
-0.015670 0.190452 0.000574
-0.012435 0.201578 -0.007943
-0.009761 0.176364 -0.013963
-0.004231 0.195397 -0.006790
-0.003533 0.184687 -0.005450
-0.026980 0.195501 -0.010857
-0.016422 0.178241 0.003206
-0.009239 0.194483 -0.011957
-0.029322 0.192415 -0.007340
-0.016253 0.209361 -0.000613
-0.010417 0.176739 0.012726
-0.003688 0.204589 -0.015926
-0.007213 0.192391 -0.021059
-0.013743 0.174904 0.004700
-0.002941 0.194013 -0.018514
-0.019644 0.193396 -0.000507
-0.022606 0.199077 -0.013887
-0.009156 0.187256 -0.001042
-0.008001 0.184977 -0.020501
0.000155 0.192951 -0.014221
-0.030106 0.203923 -0.008267
-0.022552 0.188097 -0.016282
-0.005208 0.177181 -0.005697
-0.005962 0.186940 0.001228
-0.012753 0.171858 -0.005110
-0.005282 0.175372 -0.014603
-0.017145 0.172581 0.001445
-0.015270 0.185213 -0.020129
-0.015660 0.174940 -0.002832
-0.023714 0.198102 -0.016160
-0.006884 0.197979 -0.016858
-0.010753 0.193637 -0.006815
-0.008414 0.175239 -0.000144
-0.010839 0.188994 -0.018335
-0.016641 0.184814 0.008287
-0.009649 0.212268 0.009123
-0.028125 0.174131 -0.011923
-0.010123 0.207808 -0.000990
-0.019561 0.209827 -0.001514
-0.011254 0.205225 -0.003584
-0.026803 0.192261 0.003663
-0.010031 0.174213 -0.013001
-0.017073 0.232198 -0.015283
-0.013759 0.220023 -0.005289
-0.013450 0.229251 -0.013516
-0.003223 0.239462 -0.004484
-0.003535 0.235854 0.002503
-0.007133 0.248780 0.005069
-0.008339 0.214503 -0.014339
-0.015875 0.226442 -0.001388
-0.005166 0.228694 0.009181
-0.016437 0.217367 0.011338
-0.009643 0.212575 -0.015360
-0.009280 0.214178 0.005745
-0.009489 0.246906 -0.001891
-0.018196 0.228668 -0.020201
-0.011778 0.241189 0.005192
-0.015214 0.215293 -0.014980
-0.010009 0.239958 0.005770
-0.007126 0.247965 -0.020428
-0.020111 0.218578 -0.005981
-0.018507 0.228130 -0.015309
-0.016317 0.215465 -0.018635
-0.012044 0.223917 0.008790
-0.022923 0.241947 -0.009158
-0.012745 0.233026 -0.004616
-0.022768 0.244345 -0.014768
-0.000911 0.232235 0.008979
-0.014797 0.246575 -0.015743
-0.007702 0.231901 0.004542
-0.013721 0.231897 0.008843
-0.010435 0.226823 -0.007328
-0.012625 0.217857 -0.002692
-0.019904 0.229384 -0.012855
-0.008370 0.225562 -0.010428
-0.006833 0.224926 0.009929
-0.004673 0.220254 0.003486
-0.013365 0.235494 -0.000697
-0.013074 0.227232 -0.004783
-0.012609 0.241146 -0.015954
-0.009899 0.248363 0.000014
-0.022479 0.233700 -0.002681
-0.019617 0.242059 0.008098
-0.009292 0.237460 -0.001571
-0.021517 0.224005 -0.010723
-0.013340 0.233130 0.013245
-0.014430 0.249134 -0.000817
-0.011421 0.217501 -0.022698
-0.016832 0.219933 -0.007457
-0.028943 0.250879 0.000717
-0.002403 0.223089 -0.020125
-0.016380 0.224019 -0.013576
-0.008076 0.228493 -0.002662
-0.020756 0.241984 0.010970
-0.009011 0.239408 -0.000752
-0.023371 0.250823 -0.012724
-0.020390 0.213855 -0.019668
-0.027566 0.242035 0.001580
-0.013030 0.240386 -0.005533
-0.012613 0.241111 -0.002797
-0.018197 0.226697 -0.002200
-0.025000 0.220441 -0.008571
-0.009600 0.235505 -0.003592
-0.002975 0.243289 -0.019394
-0.002085 0.215414 -0.013240
-0.014801 0.252603 -0.013334
-0.002828 0.244978 -0.012035
-0.005401 0.245493 0.001191
-0.010941 0.241053 -0.001911
0.001851 0.244416 0.006609
-0.006107 0.248854 -0.002670
-0.016566 0.248796 -0.010586
-0.010374 0.224019 -0.006170
-0.000468 0.252063 -0.015679
0.005649 0.234023 -0.011672
-0.018212 0.224210 0.011780
-0.013866 0.252828 -0.017876
-0.001615 0.224719 0.001819
-0.013461 0.238241 -0.012364
-0.017278 0.212965 -0.010562
-0.012138 0.232357 -0.009681
-0.015018 0.225627 -0.005381
-0.001889 0.246069 -0.003349
-0.004135 0.231835 -0.010061
-0.011690 0.213381 -0.006827
-0.005017 0.220460 -0.002617
-0.006368 0.211183 -0.002436
-0.017173 0.226648 0.008770
-0.018184 0.220050 -0.012718
-0.009926 0.213633 0.001977
-0.011064 0.245456 -0.003630
-0.014878 0.246837 -0.009564
-0.016955 0.225567 -0.006047
0.003501 0.248207 -0.000779
-0.027309 0.227841 -0.010449
-0.013092 0.243746 -0.003715
-0.010213 0.218603 -0.005428
-0.017840 0.227712 -0.014449
-0.002698 0.221666 -0.017219
-0.026074 0.232354 0.003228
-0.000183 0.215955 -0.012800
-0.001234 0.249763 -0.008464
-0.028334 0.250292 -0.008245
-0.016514 0.225675 0.010766
-0.017381 0.225344 -0.006592
-0.012768 0.225022 -0.007405
-0.015976 0.242416 -0.006963
-0.024353 0.235455 -0.001920
0.002930 0.220463 -0.015534
-0.007152 0.222180 0.001325
-0.014421 0.245135 0.007410
-0.021099 0.229842 -0.010550
-0.002614 0.226291 -0.005618
0.004388 0.233481 0.001472
-0.009485 0.233074 -0.000611
-0.002992 0.226136 -0.012778
-0.009833 0.222332 -0.012747
-0.030673 0.223849 -0.007964
-0.009095 0.246657 -0.006670
-0.004027 0.219696 -0.011521
-0.018898 0.227567 -0.003079
-0.002610 0.224906 -0.018618
-0.012646 0.243572 0.000313
-0.006391 0.222299 -0.020743
-0.005478 0.234134 -0.008667
-0.020130 0.219349 -0.018734
-0.010784 0.245586 -0.003358
-0.013301 0.245401 -0.009388
-0.012408 0.231018 -0.008949
-0.020475 0.214024 -0.008385
0.003273 0.214573 -0.005131
-0.013312 0.241876 -0.006204
-0.004326 0.250954 -0.020467
-0.015301 0.236809 -0.006745
-0.010529 0.220987 -0.021566
-0.026794 0.211887 0.004882
-0.022347 0.231968 -0.017073
-0.021920 0.223318 -0.014332
-0.013419 0.212206 -0.004395
-0.009162 0.210725 -0.005047
-0.014747 0.231244 -0.011011
-0.011038 0.224774 -0.007399
-0.013020 0.211961 -0.008143
-0.013513 0.250283 -0.015912
-0.028693 0.238247 -0.003769
-0.017273 0.244026 -0.020878
-0.012741 0.237046 -0.012521
-0.001018 0.231680 -0.013030
-0.010211 0.237878 0.009899
-0.000039 0.213800 0.000217
-0.008118 0.248618 -0.006734
-0.022791 0.234620 -0.006241
-0.022763 0.265616 0.001955
-0.019420 0.256587 0.003953
-0.012306 0.257323 -0.006569
-0.005874 0.290467 -0.018835
-0.004667 0.280777 -0.010156
-0.013671 0.263469 -0.001930
-0.011817 0.274539 -0.017812
0.004196 0.291684 -0.000136
-0.013556 0.275195 0.014148
-0.004394 0.275132 -0.001101
-0.026720 0.276439 0.003706
-0.004563 0.283365 -0.017976
-0.012716 0.274181 -0.000488
-0.011041 0.261921 -0.002285
-0.001561 0.288063 0.006349
-0.014268 0.289767 -0.001689
-0.021727 0.279086 0.005375
-0.021304 0.259058 -0.007720
-0.014129 0.269572 -0.005165
-0.008815 0.290091 -0.015527
-0.016564 0.251361 0.002527
-0.015617 0.279360 -0.003651
-0.022498 0.288561 -0.012569
-0.030171 0.265144 -0.008180
-0.030040 0.281804 -0.003585
-0.010647 0.284032 -0.018001
-0.014784 0.288449 -0.012284
-0.002640 0.285933 0.008198
-0.016600 0.279642 -0.003097
-0.013855 0.267916 -0.000191
-0.014819 0.273333 -0.004099
-0.006896 0.270396 0.013320
0.003023 0.266235 -0.000005
-0.012395 0.263685 0.000326
-0.015801 0.262809 0.014872
-0.021769 0.252014 0.005940
-0.024807 0.283923 -0.005144
-0.002256 0.260483 -0.003243
-0.011006 0.258429 0.000923
-0.000375 0.265168 -0.000675
-0.009513 0.260892 -0.004604
-0.015059 0.273479 -0.013866
0.000383 0.253634 -0.017533
-0.006754 0.261719 -0.000308
-0.002472 0.271281 -0.007773
-0.000609 0.276090 -0.003082
-0.013112 0.273660 0.006280
-0.019854 0.254325 -0.011821
-0.002102 0.266041 0.010178
-0.010233 0.285615 -0.002636
-0.016707 0.270161 0.003581
-0.006772 0.262191 0.014639
-0.029271 0.288123 -0.010877
-0.014920 0.266140 -0.005029
-0.020031 0.289401 0.009573
-0.012079 0.271048 -0.007548
-0.002050 0.281156 0.009855
-0.019062 0.276146 -0.018414
-0.008383 0.291100 -0.000525
-0.011683 0.272718 -0.000122
-0.001888 0.279602 0.001357
-0.022313 0.291158 -0.015729
-0.015181 0.288698 -0.016858
-0.012598 0.284326 -0.004951
-0.015646 0.291182 -0.002594
-0.004258 0.282245 -0.009739
-0.016231 0.256117 -0.006796
-0.010554 0.290203 -0.019653
-0.000691 0.269390 -0.015943
-0.020154 0.280273 -0.006604
-0.014001 0.258680 -0.002240
-0.009249 0.252928 -0.004443
-0.012268 0.284310 -0.001786
-0.009827 0.273310 0.013987
0.002646 0.272186 0.004032
-0.000771 0.257145 -0.006782
-0.017967 0.251554 0.008828
-0.000391 0.282851 -0.001861
-0.010712 0.267948 -0.001919
-0.001466 0.265002 0.008758
-0.019955 0.266114 -0.019436
-0.013785 0.291419 -0.001736
-0.026003 0.269769 0.005563
-0.018150 0.281903 0.003166
-0.028134 0.259037 -0.005102
-0.012975 0.283006 -0.001941
-0.012996 0.290064 -0.001419
-0.023421 0.269186 0.007666
-0.013749 0.288704 -0.005459
-0.017061 0.263422 -0.011047
0.000070 0.257773 -0.015442
0.001511 0.256485 -0.013891
-0.006636 0.259520 -0.007742
-0.009301 0.264568 -0.001835
-0.015338 0.263830 -0.008125
-0.010805 0.257071 -0.005178
-0.012054 0.273828 -0.003869
-0.012454 0.279154 -0.012696
-0.003160 0.270477 -0.004148
-0.009597 0.264339 -0.017277
-0.013198 0.289250 0.015739
-0.012516 0.274586 -0.002059
-0.015249 0.259782 -0.002069
-0.005065 0.279297 0.004431
0.003468 0.274047 -0.004373
-0.024321 0.261606 -0.016185
-0.023564 0.290855 -0.001624
-0.016190 0.281377 0.000128
-0.003903 0.263959 -0.012534
-0.024362 0.251281 0.010045
-0.025963 0.262505 -0.012893
-0.015546 0.269270 -0.011178
-0.017735 0.270585 -0.014726
-0.020705 0.286156 -0.001090
0.005327 0.268969 -0.006460
-0.009173 0.262947 0.000180
-0.009806 0.263330 0.000501
-0.023761 0.266973 -0.015927
-0.015021 0.253052 -0.000999
-0.010819 0.258886 -0.007541
-0.007918 0.255583 -0.012741
0.000586 0.289461 -0.014656
-0.019565 0.280583 0.003861
-0.015791 0.282204 -0.007758
-0.014670 0.263290 0.011458
-0.013051 0.279172 -0.001600
-0.007784 0.252963 0.002468
0.000328 0.289174 -0.003752
0.000734 0.292217 0.002141
-0.005731 0.281915 -0.018755
-0.012834 0.269175 -0.002623
0.007108 0.255357 -0.001572
0.001697 0.260012 -0.000856
-0.019186 0.252054 -0.005910
-0.008714 0.261396 0.011849
-0.020611 0.267344 -0.001028
-0.021829 0.281316 0.001155
-0.006099 0.263317 0.002921
-0.019175 0.281529 0.002392
-0.013769 0.269736 -0.004203
-0.016355 0.267894 -0.012467
-0.020974 0.287851 -0.011430
-0.017928 0.267464 -0.017339
0.004751 0.266566 -0.002661
-0.014830 0.277144 -0.002704
-0.011002 0.279091 -0.012097
-0.015249 0.280926 0.003026
-0.006054 0.257109 -0.012555
-0.017274 0.260305 0.000503
-0.013974 0.300862 0.011007
-0.049184 0.319176 -0.002156
-0.046188 0.312195 -0.002266
-0.036179 0.311211 -0.009275
-0.009934 0.308250 -0.003479
-0.013740 0.300243 0.004452
-0.045310 0.316334 -0.002707
-0.024062 0.278325 0.002145
-0.041376 0.311090 -0.001937
-0.046784 0.310628 -0.004749
-0.024905 0.299268 0.004647
-0.051489 0.312801 -0.001660
-0.017066 0.294117 0.000401
-0.046897 0.321822 0.004605
-0.041939 0.300288 -0.012003
-0.017025 0.296983 -0.019366
-0.045914 0.312162 0.008394
-0.047723 0.325500 0.002859
-0.029759 0.307410 0.005377
-0.032282 0.308614 0.001446
-0.047147 0.320539 -0.008822
-0.023134 0.287399 -0.000258
-0.031287 0.309987 0.005378
-0.009480 0.300219 0.000775
-0.015986 0.292687 0.000003
-0.052288 0.314932 -0.001655
-0.026428 0.300235 -0.001981
-0.052001 0.310236 -0.014163
-0.025326 0.305025 -0.008316
-0.051930 0.311374 0.008881
-0.033308 0.320894 -0.002429
-0.047807 0.315133 -0.002681
-0.023711 0.307336 -0.006918
-0.054025 0.315786 0.003332
-0.023823 0.303800 -0.011261
-0.035683 0.305023 -0.010393
-0.049200 0.301393 -0.002004
-0.047701 0.302433 -0.000996
-0.035012 0.304623 -0.002106
-0.040304 0.325592 -0.000260
-0.028398 0.313574 0.001524
-0.042041 0.315333 0.003878
-0.030475 0.311162 0.009950
-0.050461 0.309361 -0.012269
-0.039629 0.311870 -0.000777
-0.044023 0.299682 -0.003768
-0.041038 0.317905 -0.002974
-0.050882 0.318723 -0.001337
-0.024478 0.286976 0.005128
-0.045159 0.310071 0.004309
-0.027563 0.301009 -0.001591
-0.049181 0.310069 -0.012193
-0.024411 0.302780 0.002271
-0.026137 0.299891 0.000529
-0.052976 0.306739 0.002634
-0.052699 0.318632 0.002801
-0.041187 0.306608 -0.003089
-0.018557 0.298582 -0.000028
-0.027321 0.306957 -0.003993
-0.043876 0.312301 -0.001633
-0.016753 0.293838 -0.009490
-0.016568 0.292629 -0.006247
-0.031680 0.313297 -0.006424
-0.055714 0.310432 -0.010127
-0.027844 0.286251 0.001043
-0.040877 0.301572 -0.010178
-0.040713 0.312907 0.002088
-0.019569 0.306258 -0.004677
-0.051902 0.319408 -0.014423
-0.034611 0.292705 0.001234
-0.030521 0.290991 0.006810
-0.013839 0.309769 -0.004604
-0.051729 0.316793 -0.007929
-0.051737 0.320581 0.000957
-0.022396 0.294707 0.007400
-0.022820 0.295706 -0.002864
-0.035783 0.316898 -0.011432
-0.029826 0.300672 -0.002280
-0.023386 0.300554 -0.002014
-0.028499 0.310372 0.000646
-0.047177 0.306091 0.005301
-0.037781 0.292121 -0.010477
-0.027604 0.300799 -0.017449
-0.050940 0.309673 0.007801
-0.020906 0.298716 -0.002095
-0.027814 0.295697 -0.000267
-0.021370 0.287564 0.014706
-0.025754 0.292385 -0.001332
-0.051809 0.310668 0.003219
-0.032326 0.304234 -0.000525
-0.040977 0.315541 -0.013718
-0.044273 0.316914 -0.001287
-0.038511 0.317798 0.002431
-0.013428 0.296508 0.006309
-0.043173 0.310587 0.007158
-0.047861 0.321714 0.008502
-0.023791 0.299545 -0.002556
-0.028818 0.306543 -0.004592
-0.043101 0.309552 -0.003071
-0.011728 0.302168 -0.007755
-0.050007 0.318537 -0.007182
-0.033309 0.308638 -0.003075
-0.020995 0.288547 -0.017321
-0.028742 0.318945 0.002728
-0.056029 0.311494 -0.007074
-0.026251 0.310304 -0.008220
-0.013781 0.309067 -0.009087
-0.049967 0.320189 -0.005758
-0.016673 0.293091 -0.002275
-0.046942 0.312278 -0.002210
-0.039484 0.310357 -0.003398
-0.033758 0.293030 -0.001402
-0.029219 0.297681 0.009457
-0.052237 0.314715 -0.000252
-0.054601 0.317184 -0.000462
-0.075678 0.343152 0.001089
-0.055108 0.340187 0.007054
-0.052600 0.328890 0.009208
-0.058686 0.334925 -0.008149
-0.065663 0.338615 -0.004160
-0.063902 0.327865 -0.001968
-0.072163 0.329688 0.001184
-0.071296 0.346380 0.008534
-0.055272 0.321867 -0.001030
-0.060563 0.329974 0.001691
-0.065370 0.326568 -0.006976
-0.069240 0.347601 0.008159
-0.053499 0.330627 0.003281
-0.048966 0.319848 0.007399
-0.072328 0.345586 0.014333
-0.079579 0.340912 0.009096
-0.071822 0.348193 0.011014
-0.067615 0.330737 0.015850
-0.074296 0.349067 0.011761
-0.064398 0.339163 0.010385
-0.059860 0.338871 0.010718
-0.058565 0.322118 0.005372
-0.062200 0.347903 0.008628
-0.063712 0.317089 0.002432
-0.071606 0.330957 0.001381
-0.062847 0.338187 0.010814
-0.059208 0.318745 -0.000329
-0.061858 0.326318 0.013514
-0.070903 0.339280 0.018474
-0.054946 0.325070 0.005745
-0.069002 0.341218 0.006123
-0.072712 0.351346 0.012623
-0.065930 0.336607 0.005065
-0.069216 0.342408 0.005652
-0.063959 0.347602 0.007300
-0.057549 0.323359 0.002201
-0.060710 0.330533 -0.001962
-0.071240 0.333928 0.012117
-0.078168 0.345459 0.013607
-0.068052 0.325320 0.001469
-0.053703 0.327043 -0.000467
-0.066673 0.343768 0.005338
-0.076561 0.340756 -0.000720
-0.069615 0.334383 -0.000752
-0.059191 0.320461 -0.001007
-0.060735 0.335857 -0.001339
-0.065738 0.324637 -0.006286
-0.064597 0.331338 0.008538
-0.071654 0.338780 0.003754
-0.064364 0.343896 0.014352
-0.069520 0.323077 0.003881
-0.048455 0.321188 0.001950
-0.075250 0.351688 0.007870
-0.067953 0.354975 0.006325
-0.057750 0.313042 0.005947
-0.067309 0.345652 0.009216
-0.076048 0.339253 0.005700
-0.053867 0.319647 -0.003018
-0.054426 0.314954 0.004691
-0.060132 0.337083 0.001947
-0.063727 0.335879 0.014465
-0.057527 0.315592 0.005759
-0.074231 0.349969 0.000920
-0.092682 0.360934 0.012025
-0.093566 0.369276 0.002922
-0.082216 0.359856 0.005372
-0.084998 0.360313 0.012124
-0.079415 0.358238 0.008925
-0.085191 0.365514 0.008114
-0.074446 0.360051 0.016440
-0.087467 0.365005 0.007749
-0.088420 0.374463 0.008030
-0.086772 0.369287 0.012003
-0.095378 0.368542 0.016533
-0.090524 0.368160 0.004643
-0.077842 0.371331 0.010461
-0.091745 0.368875 0.009652
-0.087789 0.362507 0.015474
-0.074642 0.363975 0.019703
-0.088913 0.372626 0.008970
-0.088232 0.370573 0.019021
-0.077752 0.364843 0.009518
-0.093041 0.372860 0.008273
-0.087021 0.347074 0.015284
-0.095302 0.376039 0.002262
-0.086518 0.367050 0.012823
-0.094322 0.364436 0.018645
-0.090295 0.376995 0.013532
-0.086276 0.358223 0.003730
-0.079471 0.350942 0.006556
-0.085602 0.361530 0.010990
-0.077200 0.352351 0.004982
-0.075356 0.352698 0.016008
-0.074603 0.358788 0.011411
-0.072684 0.355406 0.012916
-0.084288 0.362452 0.010999
-0.086072 0.370809 0.017686
-0.079130 0.354414 0.018296
-0.071037 0.356242 0.002425
-0.089855 0.381072 0.019824
-0.078986 0.352649 0.006420
-0.097968 0.373147 0.007977
-0.077708 0.363830 0.011938
-0.097205 0.373130 0.003694
-0.082883 0.366585 0.018507
-0.089251 0.369860 0.008694
-0.079532 0.352857 0.001777
-0.076103 0.369307 0.014490
-0.089524 0.349569 0.011985
-0.114075 0.386225 0.005005
-0.105488 0.389385 0.009287
-0.101625 0.394700 0.018294
-0.098619 0.379482 0.006249
-0.095187 0.380574 0.012596
-0.110904 0.383584 0.008945
-0.100197 0.386826 0.004577
-0.101478 0.380590 0.003681
-0.109833 0.395640 0.009034
-0.110482 0.399449 0.008755
-0.106580 0.404557 0.008800
-0.111059 0.402128 0.010237
-0.095089 0.393887 0.008839
-0.101054 0.386282 0.009575
-0.111316 0.395347 0.008110
-0.116203 0.395410 0.014023
-0.115142 0.388296 0.003561
-0.106481 0.393708 0.010896
-0.110349 0.379530 0.008891
-0.102386 0.372398 0.012397
-0.106618 0.394456 0.016986
-0.102532 0.380671 0.016274
-0.111579 0.398335 0.009097
-0.100962 0.392052 0.009631
-0.102071 0.389455 0.008506
-0.108492 0.393745 0.008327
-0.104618 0.397991 0.015459
-0.096405 0.384670 0.013549
-0.094603 0.390388 0.005816
-0.097301 0.394580 0.007518
-0.109797 0.400443 0.013242
-0.102789 0.376971 0.015295
-0.112715 0.395416 0.003344
-0.104088 0.387122 0.008817
-0.094952 0.382390 0.015354
-0.132123 0.425043 0.007616
-0.119792 0.414522 0.001041
-0.132058 0.423687 0.008676
-0.129849 0.412727 0.006426
-0.119567 0.406973 -0.000043
-0.124677 0.422234 0.003660
-0.139079 0.419831 0.015167
-0.136678 0.417853 0.003567
-0.130803 0.423073 0.008251
-0.119517 0.409957 0.006822
-0.135330 0.423382 0.010766
-0.125159 0.422698 0.012366
-0.118596 0.411325 0.014125
-0.120012 0.410956 0.008962
-0.122845 0.402721 0.007742
-0.134568 0.421610 0.006670
-0.117525 0.405406 0.007190
-0.117756 0.405274 0.008428
-0.124472 0.424869 0.013966
-0.123398 0.414702 0.006914
-0.132723 0.418288 0.007270
-0.121481 0.408579 0.009355
-0.133036 0.417402 0.007143
-0.118151 0.414096 0.005076
-0.128132 0.408316 0.001416
-0.119841 0.415454 0.015218
-0.119742 0.406893 0.008920
-0.135185 0.423685 0.006725
-0.131748 0.407090 0.005164
-0.143183 0.427461 0.005771
-0.141564 0.430790 0.011379
-0.144508 0.443789 0.008653
-0.147297 0.443513 0.007706
-0.147656 0.428501 0.003953
-0.140432 0.433416 0.006486
-0.148622 0.448967 0.006210
-0.140766 0.442961 0.013631
-0.139126 0.442053 0.012321
-0.144390 0.439561 0.005207
-0.143614 0.441869 0.004343
-0.161200 0.441272 0.014678
-0.143155 0.440037 0.011525
-0.139356 0.426960 0.008818
-0.135226 0.432225 0.009744
-0.156245 0.448771 0.016692
-0.145511 0.443473 0.006681
-0.137690 0.428011 0.008988
-0.150773 0.442872 0.013612
-0.145368 0.435725 0.008566
-0.138595 0.428875 0.003228
-0.141602 0.437032 0.009613
-0.151820 0.453348 0.012765
-0.136664 0.426615 0.008340
-0.151558 0.440829 0.010114
-0.135742 0.426303 0.007576
-0.147966 0.448007 0.009732
-0.143918 0.423182 0.010707
-0.151104 0.436274 0.011806
-0.153141 0.453478 0.002560
-0.154159 0.445845 0.008140
-0.146250 0.432414 0.012298
-0.154824 0.451211 0.008164
-0.132689 0.427911 0.011321
-0.166900 0.459806 0.008734
-0.160769 0.454349 0.007730
-0.174045 0.473114 -0.001038
-0.182480 0.475125 0.006789
-0.165229 0.450814 0.013643
-0.179253 0.476270 0.001505
-0.172533 0.469139 0.005078
-0.179356 0.476409 -0.000818
-0.176120 0.462130 0.013186
-0.154695 0.455380 0.006035
-0.174268 0.464954 0.007316
-0.165989 0.456315 0.009720
-0.154908 0.455327 0.014286
-0.169644 0.466045 0.013855
-0.173947 0.476119 0.010630
-0.177426 0.460057 0.010089
-0.163381 0.456689 0.005832
-0.187028 0.477285 0.006209
-0.169213 0.454793 0.002954
-0.180604 0.480922 0.002536
-0.161910 0.454512 0.010298
-0.168555 0.465074 0.009960
-0.181848 0.479507 0.003786
-0.163970 0.467471 0.010371
-0.186359 0.475509 0.011799
-0.163660 0.452835 0.008915
-0.183518 0.475552 0.002572
-0.164158 0.450682 0.009415
-0.163169 0.450970 0.014171
-0.182033 0.469603 0.001752
-0.160626 0.461284 0.007404
-0.179463 0.471499 0.005266
-0.171698 0.462748 0.007990
-0.157354 0.452912 0.005651
-0.165642 0.462415 0.006928
-0.174974 0.463351 0.011867
-0.168510 0.462494 0.011478
-0.171719 0.467187 0.002727
-0.207139 0.486583 -0.002623
-0.200943 0.493254 -0.002672
-0.199185 0.482935 0.006009
-0.192718 0.481401 -0.000022
-0.202353 0.481187 -0.002493
-0.198344 0.477105 0.002669
-0.185457 0.479857 0.005944
-0.193911 0.478602 -0.001815
-0.201617 0.490298 -0.000158
-0.197444 0.483431 -0.003979
-0.199074 0.491036 0.003890
-0.195181 0.481687 0.001635
-0.199731 0.491785 0.006685
-0.199198 0.487352 0.000292
-0.201803 0.490846 0.005991
-0.203856 0.491237 -0.001329
-0.195752 0.485232 0.001784
-0.197939 0.483572 0.003225
-0.186148 0.478240 0.004965
-0.206955 0.489969 -0.007289
-0.194813 0.487471 0.002529
-0.200106 0.482228 -0.002027
-0.187731 0.478438 0.007731
-0.191877 0.472651 0.001828
-0.199938 0.481517 0.001127
-0.199241 0.490933 -0.003527
-0.219417 0.511784 -0.013019
-0.206464 0.494578 -0.005800
-0.227780 0.510886 -0.005385
-0.227033 0.511062 -0.004166
-0.214166 0.505952 -0.011187
-0.220244 0.503453 -0.006051
-0.222484 0.515017 -0.006359
-0.207637 0.492704 -0.006809
-0.205736 0.499379 -0.010960
-0.226654 0.513189 0.000773
-0.219275 0.510900 -0.008576
-0.214636 0.508653 -0.004651
-0.222063 0.506486 -0.008458
-0.226130 0.511637 -0.002730
-0.214921 0.514084 -0.003816
-0.221996 0.509566 -0.001002
-0.212660 0.503826 -0.005602
-0.215291 0.497892 -0.005012
-0.206742 0.498155 0.000508
-0.214860 0.504250 -0.000193
-0.212240 0.496643 -0.003509
-0.218424 0.515739 -0.002836
-0.225060 0.507098 -0.007171
-0.207360 0.496761 -0.000068
-0.220018 0.507755 -0.005322
-0.202150 0.499809 -0.004063
-0.222956 0.507847 -0.005768
-0.236141 0.529300 -0.003860
-0.226911 0.521048 -0.011438
-0.236132 0.526346 -0.008040
-0.235292 0.529464 -0.009530
-0.231467 0.520878 -0.007918
-0.225705 0.526913 -0.006092
-0.243987 0.524015 -0.013403
-0.235662 0.527148 -0.002447
-0.229505 0.522481 -0.001367
-0.234354 0.519847 -0.004754
-0.236540 0.528637 -0.006949
-0.235076 0.521817 -0.011944
-0.235305 0.528776 -0.007713
-0.232121 0.522095 -0.007384
-0.229261 0.519189 -0.010892
-0.238560 0.526578 -0.016874
-0.233751 0.531309 -0.014632
-0.226543 0.520912 -0.008677
-0.238899 0.524325 -0.001409
-0.238557 0.528721 -0.010742
-0.243471 0.537505 -0.009648
-0.238739 0.538796 -0.006656
-0.251493 0.545301 -0.012625
-0.249596 0.535207 -0.005386
-0.242303 0.534577 -0.008953
-0.232737 0.537407 -0.012008
-0.244569 0.551421 -0.005721
-0.246264 0.540944 -0.009299
-0.243968 0.549704 -0.014786
-0.244100 0.547983 -0.006257
-0.232394 0.535284 -0.014667
-0.244149 0.542112 -0.011493
-0.245652 0.540759 -0.009773
-0.244694 0.546506 -0.010912
-0.248590 0.550518 -0.005708
-0.241446 0.544680 -0.006784
-0.236912 0.533226 -0.005701
-0.245117 0.535176 -0.000303
-0.249488 0.551498 -0.003681
-0.248223 0.537394 -0.007848
-0.240417 0.532926 -0.014109
-0.248511 0.546899 -0.019901
-0.255722 0.548851 -0.012658
-0.264562 0.561991 -0.016246
-0.253511 0.552835 -0.011338
-0.265480 0.557714 -0.017044
-0.249252 0.554154 -0.014410
-0.263416 0.553788 -0.009181
-0.269817 0.560797 -0.012754
-0.268124 0.565991 -0.018891
-0.264281 0.565446 -0.014547
-0.261846 0.560778 -0.015652
-0.263019 0.561822 -0.016719
-0.265838 0.566057 -0.009379
-0.252103 0.560864 -0.007889
-0.254737 0.559534 -0.011169
-0.255800 0.548006 -0.011879
-0.250308 0.560960 -0.014069
-0.259260 0.562405 -0.009693
-0.263545 0.556672 -0.012442
-0.268741 0.567676 -0.015901
-0.261718 0.571819 -0.017040
-0.262605 0.567533 -0.017997
-0.254169 0.554547 -0.013407
-0.262002 0.566137 -0.014922
-0.271854 0.576312 -0.012508
-0.277594 0.575877 -0.024816
-0.286263 0.594024 -0.008923
-0.279656 0.577884 -0.014524
-0.282864 0.583564 -0.026441
-0.288284 0.592475 -0.009724
-0.276292 0.587290 -0.017885
-0.273678 0.575916 -0.013958
-0.269859 0.570676 -0.024705
-0.283516 0.581626 -0.020059
-0.269418 0.570402 -0.012918
-0.294884 0.585648 -0.019763
-0.273557 0.580357 -0.026095
-0.280317 0.585668 -0.020636
-0.279866 0.580972 -0.017951
-0.287236 0.589846 -0.017697
-0.280368 0.580164 -0.023979
-0.280859 0.595710 -0.015803
-0.290833 0.581139 -0.021155
-0.280766 0.589605 -0.020732
-0.276510 0.568656 -0.020661
-0.269560 0.577296 -0.019645
-0.282159 0.598028 -0.016317
-0.280236 0.589300 -0.014865
-0.287748 0.590272 -0.018697
-0.288926 0.592067 -0.017691
-0.288871 0.587903 -0.021913
-0.275175 0.582138 -0.017291
-0.299408 0.600329 -0.020453
-0.294746 0.598451 -0.010997
-0.294459 0.595291 -0.020489
-0.306030 0.607305 -0.025080
-0.301020 0.596949 -0.021023
-0.289751 0.592158 -0.017735
-0.302107 0.610835 -0.030078
-0.302454 0.604769 -0.033327
-0.302325 0.603311 -0.032067
-0.297814 0.598014 -0.018182
-0.302959 0.605627 -0.031791
-0.295365 0.596402 -0.020366
-0.295546 0.595250 -0.022587
-0.309065 0.603902 -0.026698
-0.294500 0.595029 -0.012794
-0.291158 0.601565 -0.021870
-0.286259 0.596369 -0.021184
-0.304535 0.607728 -0.027353
-0.303130 0.605014 -0.024927
-0.291013 0.599442 -0.014986
-0.286734 0.593152 -0.022087
-0.285269 0.599560 -0.017814
-0.288439 0.593800 -0.017856
-0.310867 0.606653 -0.027999
-0.318655 0.610561 -0.030327
-0.309339 0.608701 -0.032513
-0.322148 0.623040 -0.030817
-0.323154 0.611337 -0.031471
-0.313138 0.612903 -0.029308
-0.322863 0.616296 -0.037942
-0.318510 0.619539 -0.031574
-0.318672 0.607675 -0.029701
-0.311084 0.603788 -0.030620
-0.313626 0.602022 -0.026150
-0.312495 0.607962 -0.027211
-0.324157 0.621252 -0.033450
-0.318531 0.611657 -0.031031
-0.314290 0.619170 -0.035968
-0.315426 0.609389 -0.027902
-0.312758 0.609632 -0.027871
-0.323786 0.612025 -0.038945
-0.324450 0.620057 -0.033018
-0.324267 0.617413 -0.036443
-0.326713 0.622393 -0.032808
-0.336300 0.623488 -0.037476
-0.350225 0.634076 -0.036718
-0.350577 0.640267 -0.028374
-0.340256 0.638152 -0.034478
-0.349385 0.640150 -0.028670
-0.337030 0.630385 -0.035738
-0.332029 0.636266 -0.037743
-0.347117 0.642316 -0.029732
-0.343403 0.643851 -0.038443
-0.335486 0.625195 -0.044420
-0.338261 0.626768 -0.035004
-0.339821 0.632847 -0.036314
-0.326069 0.618899 -0.035558
-0.343176 0.627341 -0.042566
-0.321082 0.625750 -0.033048
-0.340011 0.633429 -0.034340
-0.328132 0.631177 -0.035339
-0.341191 0.640123 -0.034449
-0.334680 0.631394 -0.031332
-0.337147 0.624983 -0.027027
-0.341958 0.629036 -0.033443
-0.330699 0.624194 -0.035281
-0.332294 0.625597 -0.035692
-0.330601 0.627231 -0.040983
-0.344308 0.642239 -0.037669
-0.334998 0.628442 -0.033601
-0.323305 0.623671 -0.037881
-0.340301 0.633761 -0.034066
-0.357740 0.635708 -0.035881
-0.362749 0.647325 -0.039546
-0.367617 0.654587 -0.043836
-0.362388 0.636861 -0.035571
-0.377228 0.653001 -0.039343
-0.373545 0.648859 -0.036786
-0.362287 0.646455 -0.042059
-0.372559 0.658144 -0.035375
-0.364938 0.653237 -0.044848
-0.355727 0.640543 -0.033913
-0.357456 0.649483 -0.038142
-0.355068 0.642093 -0.037502
-0.374050 0.658386 -0.035272
-0.355240 0.641957 -0.037636
-0.366025 0.637924 -0.039093
-0.370738 0.648234 -0.032856
-0.365965 0.649314 -0.040755
-0.355123 0.641029 -0.037318
-0.377150 0.650991 -0.045855
-0.355716 0.648258 -0.044629
-0.377280 0.652874 -0.039141
-0.359497 0.647139 -0.041180
-0.374150 0.654719 -0.042561
-0.353034 0.645597 -0.035598
-0.355332 0.651265 -0.035526
-0.381762 0.668679 -0.042484
-0.383837 0.663390 -0.040775
-0.384595 0.668368 -0.042425
-0.384958 0.667756 -0.043886
-0.383042 0.665575 -0.038060
-0.388755 0.667582 -0.039066
-0.379884 0.669433 -0.039295
-0.384375 0.659640 -0.048140
-0.382728 0.653197 -0.034155
-0.384205 0.666106 -0.044066
-0.374194 0.663741 -0.041790
-0.387724 0.663134 -0.040812
-0.379981 0.658074 -0.039722
-0.382131 0.673322 -0.044791
-0.381071 0.658904 -0.044990
-0.397882 0.674726 -0.050002
-0.386509 0.670363 -0.050668
-0.388740 0.672638 -0.045582
-0.393514 0.675008 -0.046296
-0.393727 0.676415 -0.038760
-0.396018 0.675966 -0.052263
-0.397776 0.682263 -0.052472
-0.391742 0.671855 -0.046075
-0.402072 0.668580 -0.053950
-0.397255 0.673433 -0.053072
-0.394195 0.675250 -0.040408
-0.385911 0.677980 -0.044451
-0.417187 0.700232 -0.053199
-0.408952 0.685382 -0.059235
-0.424306 0.694441 -0.058863
-0.420456 0.684013 -0.060564
-0.408498 0.678336 -0.051114
-0.411988 0.675489 -0.057571
-0.415454 0.680899 -0.057291
-0.414121 0.684676 -0.059980
-0.427579 0.695234 -0.056969
-0.418211 0.688748 -0.061713
-0.404336 0.679061 -0.059335
-0.424570 0.698389 -0.064466
-0.404837 0.674283 -0.055609
-0.403768 0.679306 -0.056149
-0.411096 0.686564 -0.055469
-0.416658 0.686614 -0.055665
-0.422418 0.687250 -0.055713
-0.418742 0.691512 -0.060046
-0.423153 0.697251 -0.057204
-0.424193 0.694119 -0.064454
-0.416896 0.698126 -0.052680
-0.414963 0.692484 -0.064466
-0.418045 0.698757 -0.052974
-0.410541 0.677939 -0.063036
-0.420072 0.690463 -0.059609
-0.446640 0.713322 -0.061561
-0.424996 0.703736 -0.061954
-0.426699 0.702102 -0.058559
-0.434148 0.707564 -0.063295
-0.434828 0.702141 -0.068230
-0.438416 0.716743 -0.070367
-0.437722 0.713349 -0.065684
-0.429667 0.708591 -0.054049
-0.431423 0.703627 -0.059249
-0.436052 0.702653 -0.055771
-0.431310 0.713863 -0.064084
-0.428832 0.709661 -0.056709
-0.443635 0.707894 -0.070360
-0.439190 0.708964 -0.063253
-0.440816 0.707934 -0.060355
-0.435927 0.702125 -0.062000
-0.441524 0.717199 -0.069369
-0.434467 0.704921 -0.066473
-0.461872 0.733987 -0.077596
-0.450198 0.712448 -0.065147
-0.460978 0.731312 -0.072978
-0.446259 0.720061 -0.075298
-0.444665 0.723531 -0.071933
-0.451618 0.728177 -0.070390
-0.459306 0.732188 -0.077641
-0.460683 0.738055 -0.072747
-0.455267 0.730561 -0.071106
-0.452009 0.731559 -0.068881
-0.453793 0.726963 -0.071284
-0.455807 0.732951 -0.072585
-0.453315 0.737402 -0.075620
-0.460671 0.726391 -0.067002
-0.448785 0.721876 -0.070331
-0.459498 0.740856 -0.069782
-0.458654 0.737095 -0.072562
-0.452403 0.726909 -0.062311
-0.455657 0.732941 -0.067800
-0.443958 0.721326 -0.061473
-0.445621 0.718945 -0.071472
-0.466810 0.734618 -0.077039
-0.458985 0.728788 -0.069077
-0.460052 0.736147 -0.072660
-0.459175 0.733829 -0.073883
-0.469630 0.748145 -0.075445
-0.478469 0.771959 -0.080585
-0.468382 0.748134 -0.075972
-0.473928 0.762754 -0.081958
-0.492798 0.770303 -0.081143
-0.489642 0.764636 -0.083111
-0.484564 0.771343 -0.076352
-0.466961 0.744282 -0.072734
-0.464637 0.742980 -0.081548
-0.487801 0.771861 -0.087345
-0.471305 0.741174 -0.072817
-0.482871 0.760973 -0.077397
-0.476256 0.752161 -0.081212
-0.468097 0.744572 -0.074666
-0.469778 0.750112 -0.076507
-0.468049 0.756130 -0.071021
-0.482912 0.763880 -0.074018
-0.489833 0.769499 -0.087475
-0.488886 0.764488 -0.079430
-0.485380 0.760553 -0.081909
-0.479007 0.772127 -0.082089
-0.489059 0.774915 -0.080315
-0.486106 0.772776 -0.088420
-0.464241 0.747759 -0.069246
-0.476972 0.772305 -0.081389
-0.470372 0.751911 -0.077309
-0.472652 0.764603 -0.080691
-0.477211 0.761645 -0.072511
-0.504149 0.787223 -0.084027
-0.501928 0.790532 -0.086874
-0.488044 0.787363 -0.085651
-0.500773 0.791116 -0.076983
-0.492359 0.789657 -0.089319
-0.504570 0.798423 -0.078343
-0.503374 0.783839 -0.083478
-0.499718 0.775872 -0.085414
-0.507183 0.794549 -0.082319
-0.494070 0.781505 -0.084094
-0.496627 0.784289 -0.090095
-0.494689 0.783834 -0.081384
-0.502281 0.801231 -0.085924
-0.493064 0.784943 -0.083995
-0.484759 0.780786 -0.081686
-0.493751 0.789004 -0.080421
-0.499018 0.789933 -0.082891
-0.504978 0.788068 -0.083847
-0.509337 0.794536 -0.085954
-0.484877 0.780270 -0.083807
-0.504458 0.797199 -0.086216
-0.521775 0.799922 -0.092549
-0.540707 0.814967 -0.108763
-0.530428 0.802321 -0.095059
-0.508068 0.806682 -0.087260
-0.529649 0.807747 -0.098289
-0.507888 0.798077 -0.086733
-0.514680 0.804629 -0.086748
-0.518082 0.797376 -0.095976
-0.541181 0.815231 -0.106004
-0.529879 0.803056 -0.096744
-0.539768 0.813504 -0.101259
-0.522746 0.799832 -0.102908
-0.536615 0.811880 -0.104128
-0.525762 0.805287 -0.094152
-0.542118 0.811475 -0.109209
-0.512980 0.801129 -0.091248
-0.532269 0.809529 -0.105661
-0.538403 0.812653 -0.103788
-0.522750 0.799852 -0.095798
-0.532685 0.808054 -0.104011
-0.514460 0.806661 -0.087365
-0.515727 0.803366 -0.090479
-0.536525 0.809779 -0.105425
-0.513038 0.800805 -0.095832
-0.531536 0.807764 -0.098518
-0.522963 0.807862 -0.093134
-0.514397 0.804251 -0.091731
-0.577857 0.826387 -0.128652
-0.586807 0.834021 -0.129023
-0.583774 0.827614 -0.131051
-0.565284 0.818188 -0.122336
-0.543747 0.811140 -0.116294
-0.568916 0.820088 -0.120104
-0.565769 0.820664 -0.115939
-0.583204 0.828558 -0.132151
-0.565050 0.822477 -0.115789
-0.550811 0.808259 -0.115366
-0.548334 0.817583 -0.109455
-0.571626 0.828923 -0.127107
-0.579510 0.825321 -0.123973
-0.582701 0.828997 -0.129425
-0.581581 0.828117 -0.128964
-0.547662 0.816084 -0.116974
-0.571366 0.820696 -0.117069
-0.567337 0.816958 -0.124821
-0.588369 0.831389 -0.129948
-0.550023 0.812090 -0.113355
-0.574487 0.821782 -0.124901
-0.561503 0.819927 -0.120625
-0.576387 0.832252 -0.124867
-0.563516 0.815235 -0.119619
-0.569254 0.818982 -0.122040
-0.605932 0.838176 -0.128741
-0.617294 0.852045 -0.130979
-0.619589 0.856946 -0.132704
-0.597323 0.842679 -0.130678
-0.608362 0.844420 -0.136155
-0.616059 0.847999 -0.127747
-0.610769 0.850869 -0.134579
-0.598522 0.837129 -0.135506
-0.603456 0.845519 -0.136582
-0.611314 0.849857 -0.128440
-0.625498 0.849717 -0.130858
-0.612898 0.850728 -0.133333
-0.606108 0.841089 -0.133187
-0.588159 0.835947 -0.134373
-0.625758 0.856605 -0.128129
-0.602017 0.833627 -0.130930
-0.589186 0.834800 -0.131395
-0.626609 0.857457 -0.124675
-0.619911 0.852535 -0.129932
