ply
format ascii 1.0
element vertex 1600
property float x
property float y
property float z
end_header
-0.055680 -0.956633 -0.039678
-0.042889 -0.967963 -0.040431
-0.023107 -0.974579 -0.040883
-0.050606 -0.971078 -0.038850
-0.061688 -0.962699 -0.042982
-0.059060 -1.006440 -0.004778
-0.050090 -1.028976 -0.038699
-0.052582 -0.983786 -0.004223
-0.065166 -0.998267 -0.002240
-0.059906 -1.007056 -0.009989
-0.049075 -1.020815 -0.004079
-0.052306 -0.959792 -0.019304
-0.025140 -0.984645 -0.033490
-0.029571 -1.002098 -0.026173
-0.038552 -1.016188 -0.006106
-0.050906 -1.008281 0.002275
-0.040262 -1.019468 -0.037134
-0.037996 -1.003852 -0.014357
-0.053695 -0.996706 -0.031860
-0.019532 -0.985599 -0.029401
-0.070783 -0.978811 0.003470
-0.019621 -0.979263 -0.020035
-0.036703 -1.011707 -0.024225
-0.032049 -0.959190 -0.007854
-0.059212 -1.020505 -0.032234
-0.057971 -1.003870 0.013455
-0.040108 -1.020053 -0.017789
-0.040009 -0.981982 -0.006101
-0.019252 -0.990287 -0.010167
-0.046599 -1.027287 -0.016378
-0.052721 -1.017392 -0.044268
-0.045645 -0.971225 -0.029675
-0.022931 -0.993605 -0.015617
-0.048959 -0.960135 -0.029670
-0.041680 -0.966539 0.000695
-0.077607 -0.955393 -0.017301
-0.076392 -0.974008 -0.028482
-0.057448 -1.024952 -0.018331
-0.033592 -0.981504 0.013103
-0.076286 -0.985999 -0.007957
-0.043776 -0.994830 -0.013408
-0.063605 -1.017833 -0.000617
-0.041624 -0.971796 -0.015971
-0.073525 -0.994860 0.001626
-0.023667 -0.960706 -0.014855
-0.070440 -0.966078 -0.013419
-0.056341 -0.967436 -0.025758
-0.053114 -0.966684 -0.030259
-0.028408 -1.018359 0.017957
-0.045067 -1.015458 0.003728
-0.064158 -0.996049 0.011003
-0.045986 -0.983726 -0.011599
-0.068933 -1.026801 -0.016844
-0.046510 -1.014645 -0.008313
-0.048020 -0.972285 -0.014751
-0.067207 -0.971559 -0.036807
-0.026282 -0.974968 -0.021827
-0.055639 -0.993194 -0.021699
-0.036780 -0.963615 -0.005224
-0.023159 -1.024650 -0.000229
-0.042669 -1.013352 -0.016782
-0.061414 -0.995509 -0.026897
-0.065811 -0.994598 -0.009746
-0.063623 -0.979825 -0.038129
-0.059956 -0.965916 -0.003934
-0.050316 -0.973246 -0.008951
-0.071369 -1.012076 -0.011052
-0.034354 -1.010824 -0.024045
-0.048084 -0.979688 -0.016072
-0.048118 -0.946746 -0.015542
-0.057115 -0.950989 -0.011667
-0.064076 -0.957354 0.000959
-0.049489 -0.949643 -0.020176
-0.030818 -0.956963 0.001151
-0.055571 -0.948218 0.000556
-0.039359 -1.012081 -0.023319
-0.056674 -1.010452 -0.021752
-0.054933 -0.955838 -0.036787
-0.056410 -0.953994 -0.011940
-0.048488 -0.995166 -0.009456
-0.046047 -0.985684 -0.009528
-0.043959 -0.972305 -0.015701
-0.044826 -0.993212 -0.014755
-0.042231 -0.959698 0.012988
-0.070611 -1.027869 -0.010115
-0.046012 -0.963814 -0.016891
-0.048641 -0.966993 -0.026321
-0.046996 -0.982110 -0.009410
-0.049375 -0.973431 -0.019230
-0.062833 -0.961026 -0.005520
-0.039209 -1.019907 -0.014680
-0.021587 -0.975972 -0.020667
-0.044150 -0.964218 -0.019494
-0.021573 -1.018296 -0.046457
-0.039495 -1.016514 -0.016538
-0.022687 -0.966029 -0.003901
-0.025430 -0.983958 -0.015292
-0.048863 -0.967605 -0.020301
-0.073480 -0.980764 -0.016709
-0.063877 -0.969149 -0.001436
-0.023981 -1.016444 -0.037443
-0.042673 -0.973483 -0.026950
-0.038945 -1.002943 -0.014193
-0.044583 -0.947088 -0.018911
-0.034688 -0.981022 -0.019852
-0.037541 -1.026941 -0.017124
-0.029579 -0.983170 -0.004915
-0.053136 -1.001402 -0.018338
-0.069620 -1.002211 0.002440
-0.063544 -0.989819 -0.029859
-0.014458 -1.010352 -0.024917
-0.045159 -0.955519 -0.001840
-0.025375 -0.998784 -0.035674
-0.049325 -0.952969 -0.040169
-0.053886 -0.988794 -0.019448
-0.038407 -1.019096 -0.005891
-0.032041 -0.983194 0.008664
-0.048833 -0.986436 -0.019675
-0.053701 -0.977300 -0.000205
-0.045777 -0.982544 -0.015859
-0.041651 -1.017290 -0.022538
-0.042186 -0.991162 -0.016952
-0.054063 -1.021325 -0.015652
-0.049029 -0.956861 -0.026323
-0.022422 -0.955787 -0.011988
-0.042382 -1.016442 -0.048748
-0.058867 -0.989880 -0.011721
-0.064281 -0.998447 -0.041964
-0.065636 -0.981913 -0.014773
-0.042809 -0.968194 -0.016787
-0.036149 -0.983731 -0.018200
-0.034748 -1.017893 -0.041377
-0.045587 -1.017069 -0.045177
-0.061115 -0.955536 0.003607
-0.025629 -0.991977 -0.012870
-0.037551 -1.011825 0.007587
-0.044440 -1.006985 -0.010961
-0.025421 -1.014116 -0.029103
-0.035829 -1.012872 -0.018165
-0.066368 -0.972076 0.006781
-0.039844 -1.004815 -0.001875
-0.021213 -1.023839 -0.021369
-0.047265 -0.961438 0.005923
-0.057312 -1.030101 -0.006790
-0.047817 -0.987784 -0.049851
-0.046655 -0.963121 -0.010761
-0.063979 -0.948832 -0.019091
-0.059662 -0.978546 -0.002316
-0.030934 -1.009118 -0.040311
-0.051853 -0.998781 -0.029694
-0.042399 -0.972683 -0.040755
-0.059931 -1.011103 0.003297
-0.033344 -0.984030 -0.031780
-0.039697 -0.976926 0.002237
-0.045180 -0.995287 -0.017761
-0.063641 -0.971653 -0.040033
-0.075776 -0.974454 -0.014165
-0.034253 -0.956231 -0.009635
-0.069131 -0.985454 -0.016323
-0.043727 -0.993191 -0.018330
-0.050171 -1.015298 0.008457
-0.073173 -1.005919 -0.031309
-0.043440 -0.946277 -0.030425
-0.042855 -1.001943 -0.012564
-0.047982 -1.011465 -0.032925
-0.045522 -1.022015 -0.021941
-0.036269 -1.017914 -0.049482
-0.022429 -0.978174 -0.029631
-0.056616 -0.981320 -0.011338
-0.044373 -0.999512 -0.043294
-0.059329 -0.983846 -0.045370
-0.036490 -0.984818 -0.019112
-0.032649 -1.009124 -0.017458
-0.064119 -0.991697 -0.014942
-0.063558 -1.005536 0.001601
-0.018480 -1.007679 -0.036433
-0.066549 -0.952211 -0.043529
-0.047306 -0.982097 -0.034699
-0.042297 -0.974119 -0.017478
-0.057186 -0.994395 -0.026418
-0.041416 -1.005138 -0.017532
-0.034304 -0.956457 -0.027579
-0.061546 -0.997923 -0.036252
-0.050314 -0.993725 -0.010219
-0.038307 -0.980932 -0.033971
-0.014727 -1.007658 -0.010822
-0.027387 -1.021142 0.006977
-0.045804 -0.958572 -0.006910
-0.061681 -0.996189 -0.043742
-0.055818 -1.002207 -0.018301
-0.016764 -1.022448 -0.009554
-0.029538 -0.972287 -0.016066
-0.074076 -0.987805 -0.005034
-0.052230 -0.972983 -0.025986
-0.070919 -0.999605 -0.001270
-0.047220 -0.955572 -0.018457
-0.037308 -1.007868 -0.013028
-0.045480 -0.982308 -0.016107
-0.031397 -0.991534 -0.008685
-0.027616 -0.991314 0.004612
-0.046299 -0.954402 -0.041844
-0.032794 -0.992078 -0.005860
-0.069927 -0.990646 -0.038559
-0.048206 -0.999819 -0.038811
-0.045623 -0.991135 -0.014883
-0.073851 -1.023249 -0.013994
-0.049992 -0.984674 -0.012421
-0.045745 -0.971766 0.008876
-0.040180 -1.017458 -0.010463
-0.036073 -0.985484 -0.034151
-0.026670 -1.004592 -0.009231
-0.053508 -0.975016 0.013676
-0.037459 -0.980333 -0.027020
-0.024762 -0.994383 -0.034531
-0.043570 -0.985617 -0.009308
-0.039810 -0.982379 -0.006827
-0.042238 -0.972268 0.012581
-0.033195 -0.947764 -0.010635
-0.050990 -1.009833 0.005680
-0.046697 -0.951305 -0.011387
-0.056718 -0.997753 -0.023119
-0.043799 -0.976404 -0.014290
-0.035920 -1.002638 0.006264
-0.049467 -0.951109 -0.017189
-0.023776 -1.004958 -0.008861
-0.043828 -0.978116 -0.018804
-0.073993 -0.957756 -0.023358
-0.052352 -0.998217 -0.040285
-0.026789 -0.977454 0.011184
-0.079563 -0.954569 -0.013561
-0.053361 -0.955356 -0.007012
-0.017946 -0.998085 -0.037264
-0.044116 -0.975523 -0.023396
-0.039366 -0.998520 -0.011630
-0.037408 -0.960028 -0.007682
-0.045261 -0.989016 -0.016369
-0.074631 -0.995117 -0.005876
-0.047403 -1.005312 -0.025704
-0.018671 -0.970622 -0.027682
-0.019078 -0.967731 -0.021824
-0.026671 -0.951797 -0.006676
-0.044938 -0.984650 -0.018364
-0.028901 -1.005177 -0.037481
-0.047813 -0.976216 -0.017390
-0.069376 -1.027321 -0.006015
-0.027006 -1.023586 -0.013584
-0.011461 -1.015269 -0.014257
-0.047496 -0.949976 -0.014593
-0.040823 -0.983350 -0.041425
-0.028402 -1.018474 -0.026505
-0.034505 -0.981268 -0.013266
-0.051222 -1.003669 0.013000
-0.050064 -0.946852 -0.012354
-0.073769 -0.957838 -0.020304
-0.076167 -0.952032 -0.011124
-0.067889 -0.993033 -0.033003
-0.050065 -0.948237 0.014852
-0.072874 -0.997835 -0.005422
-0.050308 -1.015747 -0.003991
-0.061491 -0.964619 -0.027460
-0.041136 -1.004592 -0.013741
-0.037102 -0.985274 -0.026998
-0.035527 -0.960964 -0.016862
-0.041359 -0.962172 -0.022809
-0.042667 -0.958065 -0.009743
-0.058348 -0.966607 0.006254
-0.065086 -1.027608 -0.013721
-0.044937 -1.018266 -0.017557
-0.048175 -1.004890 -0.024827
-0.040829 -1.011290 -0.012794
-0.049029 -0.984012 -0.028622
-0.063295 -1.013090 -0.039009
-0.046367 -0.966748 0.007095
-0.033041 -0.994124 -0.029314
-0.058044 -0.964966 -0.020915
-0.051626 -0.947333 -0.012911
-0.044125 -1.025864 -0.018609
-0.032755 -1.026267 -0.023747
-0.051333 -0.957168 -0.034674
-0.065934 -1.017473 -0.005414
-0.055812 -0.948282 -0.007522
-0.032367 -0.953663 -0.020145
-0.032243 -1.013104 -0.011652
-0.065574 -0.962905 -0.001658
-0.035261 -0.962619 -0.024684
-0.063581 -0.948809 -0.022902
-0.065507 -0.953384 -0.013476
-0.053683 -0.979807 -0.001242
-0.031778 -0.993900 -0.011795
-0.062862 -0.991142 -0.015398
-0.048805 -0.974055 -0.033706
-0.054230 -1.011275 -0.009488
-0.031390 -0.971049 -0.027630
-0.057673 -0.963734 -0.025431
-0.038032 -0.992708 -0.017858
-0.049208 -0.998734 -0.015963
-0.039992 -0.993426 -0.015074
-0.068759 -0.981304 -0.025174
-0.036234 -1.020803 -0.014397
-0.045627 -1.019719 -0.037054
-0.045639 -0.954279 -0.008257
-0.059125 -0.947947 -0.029447
-0.046378 -0.977261 -0.010757
-0.057484 -0.987174 -0.046938
-0.043635 -1.021048 -0.002847
-0.020456 -1.015506 0.001926
-0.040611 -0.978654 -0.017996
-0.032466 -0.980559 -0.039442
-0.015750 -1.023654 0.004161
-0.016598 -0.956493 -0.016242
-0.065969 -1.017794 0.001548
-0.019927 -1.022511 0.008093
-0.051769 -1.004892 -0.030299
-0.076227 -1.022112 -0.016246
-0.046154 -0.998800 -0.016904
-0.044144 -0.964961 -0.010351
-0.066427 -1.003169 -0.000896
-0.038981 -1.024833 -0.003238
-0.056509 -0.993454 -0.013663
-0.054737 -0.949905 -0.020136
-0.047166 -1.021633 -0.026723
-0.040717 -0.989223 -0.028919
-0.020888 -0.997502 -0.025256
-0.070452 -1.002741 -0.008850
-0.048720 -1.001045 -0.014615
-0.068932 -0.973788 0.006939
-0.043835 -0.960803 -0.007847
-0.047864 -1.021110 -0.007841
-0.013758 -1.011824 -0.013767
-0.055134 -1.025330 -0.037476
-0.075634 -0.956492 -0.009797
-0.039218 -0.973877 -0.009989
-0.044766 -1.008994 -0.037847
-0.010014 -0.998851 -0.005863
-0.042395 -0.998223 -0.005345
-0.044603 -0.986024 -0.015974
-0.030118 -0.954699 0.003875
-0.020237 -1.023316 -0.043784
-0.047461 -0.985175 -0.016585
-0.043078 -0.995031 -0.020495
-0.042725 -0.990043 -0.015663
-0.046378 -0.956496 0.007086
-0.016679 -0.969194 -0.025788
-0.044987 -1.016755 -0.009012
-0.057857 -0.995079 -0.000796
-0.045892 -0.955658 -0.014737
-0.009586 -1.000648 -0.005461
-0.044429 -0.949746 0.016336
-0.055276 -0.951942 0.000355
-0.043322 -0.970831 0.015092
-0.030239 -1.012113 -0.007649
-0.036026 -0.988839 -0.012970
-0.060368 -1.027774 0.010097
-0.043732 -1.010035 -0.015028
-0.037055 -0.996341 0.000077
-0.058997 -0.961210 -0.023230
-0.065451 -1.005778 -0.014406
-0.066556 -0.981131 -0.017821
-0.066699 -0.962821 -0.018224
-0.031714 -1.016462 -0.016400
-0.032400 -0.982097 -0.009804
-0.051358 -1.028952 -0.045914
-0.070384 -1.018113 -0.001900
-0.046997 -1.006577 -0.016224
-0.061913 -0.981253 -0.008927
-0.033958 -0.983319 -0.020746
-0.066483 -0.985082 -0.024563
-0.037903 -0.980252 -0.021292
-0.046750 -0.981205 -0.012761
-0.040109 -1.019414 -0.024334
-0.071501 -0.986634 -0.017349
-0.020886 -0.993089 -0.001636
-0.036234 -0.987544 0.015450
-0.046629 -0.987295 -0.009146
-0.030022 -0.977587 0.006649
-0.048731 -1.014559 -0.025390
-0.047977 -1.017658 0.015297
-0.058751 -0.968166 -0.027318
-0.051117 -0.948777 -0.014922
-0.047662 -0.967254 -0.011194
-0.024820 -0.962761 -0.012221
-0.041455 -1.012080 -0.013182
-0.064218 -0.989346 -0.015080
-0.049608 -0.968137 -0.016805
-0.053337 -1.020835 0.003509
-0.076853 -0.951014 -0.022113
-0.031025 -1.007814 0.016694
-0.048773 -1.018845 0.008429
-0.030113 -1.002196 -0.037460
-0.041731 -0.981457 -0.030806
-0.044098 -1.023487 -0.021960
-0.029649 -0.999837 -0.020512
-0.022221 -0.996186 -0.039852
-0.049782 -1.002629 0.005226
-0.042475 -0.986838 0.009620
-0.066859 -0.991319 -0.028416
-0.048570 -0.961996 -0.048418
-0.038756 -1.025171 -0.019294
-0.035490 -0.967764 -0.011315
-0.040880 -0.864708 -0.000406
-0.037245 -0.891428 -0.024020
-0.018614 -0.794645 -0.045554
-0.029946 -0.849270 -0.009993
-0.037418 -0.807889 -0.014861
-0.049849 -0.937423 -0.033461
-0.019047 -0.953054 -0.018085
-0.018697 -0.811542 -0.012787
-0.034719 -0.853717 -0.005296
-0.006078 -0.779521 -0.026021
-0.031553 -0.929979 -0.047351
-0.014172 -0.824411 -0.039945
-0.024284 -0.857917 -0.033312
-0.041257 -0.820452 -0.042144
-0.006029 -0.813106 -0.045649
-0.014633 -0.859968 -0.040177
-0.065922 -0.938735 -0.004884
-0.052340 -0.905738 -0.015580
-0.053759 -0.878785 -0.046496
-0.014822 -0.842681 -0.056097
-0.039130 -0.898053 -0.021443
-0.019910 -0.796634 -0.015817
-0.023135 -0.874362 -0.028385
-0.036584 -0.889030 -0.025918
0.009841 -0.798152 -0.039992
-0.042012 -0.862387 -0.023155
-0.023507 -0.858613 -0.040268
-0.021019 -0.848021 -0.012054
-0.033744 -0.878235 -0.026961
-0.033692 -0.943155 -0.033206
-0.012035 -0.913891 -0.028913
-0.013065 -0.883556 -0.039438
-0.008299 -0.794884 -0.032681
-0.021267 -0.848151 -0.048045
-0.048175 -0.935610 -0.035118
-0.046111 -0.929512 -0.018818
-0.035579 -0.817748 -0.031491
-0.006638 -0.778494 -0.039250
-0.036043 -0.830459 -0.023808
-0.052457 -0.899148 -0.009058
-0.029467 -0.820529 -0.056129
-0.040014 -0.896144 -0.030799
-0.021440 -0.839271 -0.034551
-0.056561 -0.892339 -0.037658
-0.023447 -0.949592 -0.019214
-0.051207 -0.837679 -0.022360
-0.044080 -0.841582 -0.022852
-0.034846 -0.952284 -0.030451
-0.048222 -0.938967 -0.028139
-0.040927 -0.920605 -0.001208
-0.019572 -0.791110 -0.045251
-0.018270 -0.838415 -0.049688
-0.048849 -0.903913 -0.025136
-0.061829 -0.924253 -0.008547
-0.036909 -0.848537 -0.045319
-0.023692 -0.848190 -0.035934
-0.007402 -0.848810 -0.044979
-0.038368 -0.911306 0.004357
-0.036054 -0.790728 -0.046215
-0.044864 -0.923068 -0.019319
-0.027816 -0.781766 -0.058582
-0.029462 -0.837030 -0.015130
-0.042728 -0.856213 -0.049547
-0.045029 -0.840811 -0.010909
-0.032095 -0.884211 -0.040618
-0.048173 -0.943440 -0.013579
-0.007105 -0.853925 -0.035761
-0.002240 -0.809375 -0.014995
-0.033555 -0.818989 -0.014609
-0.036683 -0.777928 -0.037256
-0.043744 -0.807278 -0.032385
-0.025691 -0.783589 -0.044761
-0.017592 -0.819680 -0.034781
-0.004759 -0.804892 -0.021788
-0.028966 -0.858420 -0.027222
-0.018130 -0.809665 -0.037712
-0.053775 -0.890982 -0.035928
-0.015350 -0.844477 -0.040351
-0.015143 -0.822723 -0.035064
-0.018939 -0.825459 -0.029828
-0.014611 -0.826908 -0.006956
-0.031601 -0.840521 -0.005387
-0.048942 -0.934615 -0.038838
-0.042536 -0.878596 -0.038287
-0.023887 -0.837288 -0.031830
-0.011604 -0.884981 -0.035040
-0.037017 -0.903196 -0.025648
-0.011287 -0.802733 -0.015633
-0.037811 -0.892569 -0.039750
-0.030882 -0.838335 -0.033744
-0.034496 -0.789815 -0.023025
-0.064054 -0.931898 -0.013645
-0.034124 -0.811867 -0.042619
-0.026439 -0.847711 -0.030454
-0.067230 -0.931375 -0.009187
-0.028650 -0.848511 -0.029275
-0.051917 -0.916619 -0.026433
-0.038450 -0.874932 -0.025005
-0.050857 -0.925163 -0.034316
-0.047223 -0.939966 -0.012923
-0.045866 -0.930281 -0.018611
-0.044002 -0.930718 -0.017788
-0.033405 -0.774715 -0.042150
-0.018597 -0.861881 -0.036332
-0.016901 -0.857952 -0.038659
-0.026419 -0.847410 -0.027757
-0.028630 -0.871312 -0.020032
-0.021805 -0.876453 -0.043668
-0.053851 -0.911378 -0.043813
-0.018819 -0.864319 -0.005398
0.014037 -0.785134 -0.033830
-0.032655 -0.877439 -0.025938
-0.035214 -0.886136 -0.025138
0.000549 -0.794334 -0.032396
-0.033136 -0.864506 -0.029753
-0.005829 -0.828661 -0.021629
-0.046318 -0.947302 -0.015690
-0.025257 -0.844603 -0.047853
-0.013313 -0.881531 -0.014180
-0.023353 -0.828353 -0.025187
-0.053069 -0.924798 -0.015392
-0.046923 -0.846813 -0.028290
-0.047610 -0.930570 -0.018031
-0.054570 -0.855976 -0.014730
-0.027972 -0.892257 -0.033899
-0.021554 -0.828672 -0.037161
-0.040560 -0.921821 -0.017351
0.004060 -0.807717 -0.042634
-0.044548 -0.905276 -0.018247
-0.055009 -0.871952 -0.040731
-0.043627 -0.863168 -0.000740
-0.018205 -0.876831 -0.020245
-0.046764 -0.866730 -0.015033
-0.033170 -0.864106 -0.025059
-0.060092 -0.930060 -0.010535
-0.014875 -0.818831 -0.034983
-0.039517 -0.925569 -0.027725
-0.025876 -0.837955 -0.036557
-0.010391 -0.826930 -0.037918
-0.023309 -0.850090 -0.054616
-0.013738 -0.824338 -0.038125
-0.024373 -0.929615 -0.027654
-0.046141 -0.910441 -0.018197
-0.036047 -0.898610 -0.043105
-0.049573 -0.887263 -0.042344
-0.011579 -0.807382 -0.023655
-0.014468 -0.876742 -0.024430
-0.045237 -0.913879 -0.028821
-0.048939 -0.819644 -0.038647
-0.020872 -0.879773 -0.013706
-0.013579 -0.784466 -0.030489
-0.017721 -0.870211 -0.027723
-0.032014 -0.853435 -0.009488
-0.019066 -0.911781 -0.000503
-0.059328 -0.938521 -0.015317
-0.037905 -0.895269 -0.027983
-0.022407 -0.816930 -0.018073
-0.042724 -0.860009 -0.047927
-0.043651 -0.867555 -0.017587
-0.038198 -0.806812 -0.020314
-0.003647 -0.788919 -0.060973
-0.042630 -0.871905 -0.025445
-0.001375 -0.849059 -0.027901
-0.012932 -0.785352 -0.037567
-0.014361 -0.787521 -0.036805
-0.013221 -0.840627 -0.027724
-0.013312 -0.808764 -0.038609
-0.033378 -0.836130 -0.013888
-0.025499 -0.828346 -0.034022
0.004515 -0.823133 -0.026300
-0.018101 -0.877936 -0.004561
-0.037196 -0.878925 -0.016883
0.007885 -0.812412 -0.039924
0.004973 -0.788576 -0.022622
-0.024673 -0.945607 -0.009056
-0.020496 -0.875271 -0.031540
-0.016933 -0.776744 -0.041559
-0.062522 -0.916773 0.002288
-0.056466 -0.939102 -0.034729
-0.041429 -0.867474 -0.031376
-0.031428 -0.816339 -0.052679
-0.011914 -0.790112 -0.042675
-0.062550 -0.868915 -0.023572
-0.043138 -0.815173 -0.046562
-0.051297 -0.920460 -0.049829
-0.012898 -0.833442 -0.038791
-0.036484 -0.838322 -0.029306
-0.016848 -0.823365 -0.018841
-0.036713 -0.858379 -0.012334
-0.034631 -0.879746 -0.027004
-0.060118 -0.905707 -0.003540
-0.029854 -0.796724 -0.051700
-0.020086 -0.801125 -0.036106
-0.045913 -0.815151 -0.032732
-0.033001 -0.863576 -0.028952
-0.069297 -0.937542 -0.031898
-0.044856 -0.941575 -0.004500
-0.038348 -0.900248 -0.026492
-0.033382 -0.872298 -0.007596
-0.044420 -0.919924 -0.020419
-0.045651 -0.905664 -0.026853
-0.046135 -0.933746 -0.020929
-0.020101 -0.939658 -0.004491
-0.030683 -0.946002 -0.029077
-0.007442 -0.789416 -0.039091
-0.013037 -0.813382 -0.038922
-0.042398 -0.935919 -0.011751
-0.022617 -0.824072 -0.048866
-0.032265 -0.785152 -0.055716
-0.017707 -0.823597 -0.034089
-0.017648 -0.853456 -0.031724
-0.042261 -0.912223 -0.034718
-0.034626 -0.843932 -0.042587
-0.050164 -0.920734 -0.035980
-0.011458 -0.843978 -0.031231
-0.039965 -0.917752 -0.028433
-0.038184 -0.858941 -0.034147
-0.042038 -0.905379 -0.019924
-0.046597 -0.931287 -0.018836
-0.013460 -0.857116 -0.046090
-0.048029 -0.938708 -0.027708
-0.031612 -0.812839 -0.026697
-0.022991 -0.849790 -0.030614
-0.045396 -0.885992 -0.023548
0.006053 -0.817351 -0.044242
-0.035217 -0.869247 -0.026482
-0.030551 -0.891358 -0.005936
-0.017960 -0.879140 -0.047299
-0.043185 -0.938113 -0.048164
-0.022854 -0.834691 -0.047328
-0.018042 -0.886647 -0.024702
-0.037314 -0.874219 -0.035940
0.001590 -0.793497 -0.017664
-0.007218 -0.798150 -0.037169
-0.034638 -0.878377 -0.028019
-0.031268 -0.882564 -0.041201
-0.034498 -0.835016 -0.054306
-0.031283 -0.902042 -0.019421
-0.008245 -0.784283 -0.029875
-0.023535 -0.834510 -0.030956
-0.047543 -0.927762 -0.032339
-0.001183 -0.795404 -0.017972
-0.032589 -0.916824 -0.042716
-0.008976 -0.840402 -0.042958
-0.035076 -0.877484 -0.027323
-0.060446 -0.930074 -0.023960
-0.012169 -0.801006 -0.036286
-0.035166 -0.900694 -0.011157
-0.020582 -0.859808 -0.034542
-0.020610 -0.820800 -0.034267
-0.035156 -0.865530 -0.027612
-0.018244 -0.815725 -0.034523
-0.032336 -0.875465 -0.019063
-0.033914 -0.775294 -0.034340
-0.015011 -0.813064 -0.043544
-0.022238 -0.830269 -0.044237
-0.047875 -0.924675 -0.011170
-0.027686 -0.880716 -0.011008
-0.011971 -0.788075 -0.040427
-0.035567 -0.795376 -0.028720
-0.023787 -0.805723 -0.032619
-0.042576 -0.911589 -0.019484
-0.033330 -0.869984 -0.012712
-0.019592 -0.875281 -0.024640
-0.041242 -0.931879 -0.012551
-0.007694 -0.817750 -0.059534
-0.013031 -0.783795 -0.038667
-0.033756 -0.905378 -0.009416
-0.019972 -0.791560 -0.047024
-0.018243 -0.787180 -0.042691
-0.010449 -0.782423 -0.041816
-0.053528 -0.920295 -0.020370
-0.057639 -0.882919 -0.019237
-0.014306 -0.816025 -0.035206
-0.053530 -0.925590 -0.021261
-0.020149 -0.818433 -0.033063
-0.018645 -0.813128 -0.034955
-0.048884 -0.931595 -0.009940
-0.012002 -0.796731 -0.041983
-0.022264 -0.816493 -0.033428
-0.031564 -0.872624 -0.024301
-0.029187 -0.882237 -0.021206
-0.028192 -0.885433 -0.041287
-0.007633 -0.803649 -0.031289
-0.007634 -0.820512 -0.040309
-0.015568 -0.789561 -0.044294
-0.049321 -0.939722 -0.017444
-0.044117 -0.909771 -0.023278
-0.031803 -0.796675 -0.014682
-0.005631 -0.798737 -0.018318
-0.038599 -0.921372 -0.017303
-0.012885 -0.863981 -0.030876
-0.045681 -0.923842 -0.050528
-0.017260 -0.857546 -0.007381
-0.041110 -0.941112 -0.034750
-0.024077 -0.800852 -0.024680
-0.010993 -0.833159 -0.021578
-0.010396 -0.859429 -0.015252
-0.006767 -0.842776 -0.031128
0.000328 -0.793954 -0.037438
-0.037535 -0.890029 -0.003721
-0.013600 -0.812093 -0.033843
-0.038885 -0.856871 -0.027296
-0.041197 -0.804961 -0.037396
-0.042728 -0.871439 -0.052507
-0.009690 -0.853284 -0.016611
-0.023865 -0.791419 -0.044041
-0.010369 -0.907409 -0.018479
-0.019905 -0.821444 -0.016607
-0.055393 -0.915224 -0.031883
-0.016482 -0.883238 -0.007300
-0.035918 -0.808734 -0.032198
-0.020491 -0.815062 -0.030586
0.005703 -0.831246 -0.037141
-0.021553 -0.863702 -0.019095
-0.009578 -0.799692 -0.009975
-0.044964 -0.815712 -0.028716
-0.038286 -0.917865 -0.019164
-0.010266 -0.884328 -0.013494
-0.043265 -0.906566 -0.021320
-0.014971 -0.853872 -0.034400
-0.021905 -0.852836 -0.025235
-0.022019 -0.825475 -0.033318
-0.048522 -0.908305 0.001567
-0.032019 -0.854891 -0.022702
-0.016691 -0.816190 -0.036476
0.000886 -0.822660 -0.046042
-0.042100 -0.913089 -0.020835
-0.019696 -0.850398 -0.039620
-0.009299 -0.853790 -0.034596
-0.041817 -0.932369 -0.022700
-0.052182 -0.863720 -0.017013
-0.025375 -0.869148 -0.014005
-0.013893 -0.841999 -0.014585
-0.024852 -0.817464 -0.031086
-0.022002 -0.894491 0.002987
0.003424 -0.806566 -0.027986
-0.034493 -0.894752 0.006668
-0.010918 -0.794480 -0.022764
-0.033084 -0.881003 -0.029342
-0.008287 -0.783075 -0.034061
-0.029282 -0.951933 -0.020660
-0.037448 -0.898159 -0.018935
-0.032380 -0.848481 -0.052055
-0.009827 -0.840982 -0.029183
-0.004987 -0.792676 -0.059901
-0.029598 -0.894450 -0.043258
-0.000657 -0.856318 -0.021723
0.003363 -0.813496 -0.024204
-0.039276 -0.868011 -0.028341
-0.024968 -0.819670 -0.030245
-0.037262 -0.906552 -0.015941
-0.044755 -0.858126 -0.026642
-0.041853 -0.903275 -0.019703
-0.040992 -0.827679 -0.043479
-0.017796 -0.892379 -0.015617
-0.010297 -0.779578 -0.039674
-0.049969 -0.875434 -0.033482
-0.027128 -0.812524 -0.042172
-0.021315 -0.827679 -0.057841
-0.034517 -0.808599 -0.035902
-0.052095 -0.925948 0.007436
-0.038046 -0.936059 -0.013386
-0.059580 -0.911447 -0.027833
-0.055997 -0.932740 -0.015988
-0.034879 -0.870373 -0.045374
-0.006554 -0.834974 -0.027628
-0.027189 -0.850034 -0.029951
-0.055191 -0.868315 -0.018744
-0.029791 -0.926739 -0.013587
-0.044034 -0.930352 -0.008647
-0.048977 -0.900659 -0.031115
-0.020528 -0.837893 -0.045334
-0.046486 -0.847239 -0.025321
-0.012688 -0.859042 -0.043937
-0.043449 -0.897449 -0.027115
0.002746 -0.833609 -0.032087
-0.056580 -0.919794 -0.011598
-0.066542 -0.913704 -0.004158
-0.028183 -0.852796 -0.029758
-0.015336 -0.810468 -0.034064
-0.021996 -0.838752 -0.042236
-0.038154 -0.892379 -0.023261
-0.023106 -0.897923 -0.033608
-0.013812 -0.794898 -0.034015
-0.032274 -0.818467 -0.034699
-0.043867 -0.912265 -0.017053
-0.047641 -0.901855 -0.018783
-0.025513 -0.897711 -0.024898
-0.019995 -0.923180 -0.000551
-0.010382 -0.861322 -0.015366
-0.029287 -0.916778 -0.021148
-0.055801 -0.898757 -0.039517
-0.018413 -0.806569 -0.037322
-0.018049 -0.945375 -0.014467
-0.034987 -0.952123 -0.032384
-0.070613 -0.912753 -0.010621
-0.044894 -0.914384 -0.016041
-0.010939 -0.837068 -0.027961
-0.063445 -0.942471 -0.031600
-0.037339 -0.882039 -0.029050
-0.009411 -0.805888 -0.043012
-0.039117 -0.826660 -0.027415
-0.032658 -0.855385 -0.041711
-0.019186 -0.778218 -0.050014
-0.034261 -0.848683 -0.042776
-0.008448 -0.851160 -0.034938
0.001500 -0.825805 -0.025645
-0.032153 -0.925330 -0.028830
-0.023142 -0.777628 -0.034483
-0.009785 -0.820776 -0.058137
-0.047041 -0.886429 -0.044861
-0.041683 -0.881333 -0.013819
-0.051525 -0.927608 -0.049650
-0.015801 -0.780038 -0.013663
-0.016454 -0.822640 -0.049234
-0.041491 -0.903174 -0.018070
-0.038764 -0.835192 -0.052874
-0.041338 -0.910108 -0.022180
-0.040784 -0.905508 -0.021727
-0.006552 -0.801109 -0.057632
-0.019401 -0.833029 -0.034578
-0.011063 -0.810106 -0.022775
-0.028774 -0.856857 -0.048317
-0.018293 -0.826800 -0.050575
-0.030411 -0.881823 -0.035515
-0.029694 -0.849121 -0.012030
-0.030135 -0.884799 -0.019074
-0.050164 -0.942804 -0.000708
-0.040475 -0.920009 0.003098
-0.014307 -0.811542 -0.018452
-0.044811 -0.887841 -0.020357
-0.025918 -0.841609 -0.028303
-0.035022 -0.894240 -0.043720
-0.041636 -0.945358 -0.007472
-0.045471 -0.831019 -0.036100
-0.011780 -0.803489 -0.028419
-0.063308 -0.913525 -0.029835
-0.042013 -0.877387 -0.005267
-0.014299 -0.847772 -0.052870
-0.001348 -0.802287 -0.025866
-0.040470 -0.788610 -0.037236
-0.041608 -0.932752 0.000543
0.001317 -0.820245 -0.018456
-0.074962 -0.922388 -0.010944
-0.032793 -0.944110 -0.006803
-0.042605 -0.890237 -0.011233
-0.023203 -0.916356 -0.023050
-0.035878 -0.885657 -0.024804
-0.025064 -0.776478 -0.047869
-0.039412 -0.889353 -0.039169
-0.027378 -0.895367 -0.018101
-0.016370 -0.851649 -0.022023
-0.018815 -0.788567 -0.038749
-0.020467 -0.788328 -0.042724
-0.045204 -0.894406 -0.031719
-0.013028 -0.873909 -0.021797
-0.032100 -0.786684 -0.052746
-0.038830 -0.929932 -0.019577
-0.004077 -0.779921 -0.041031
-0.030422 -0.818119 -0.021378
-0.026780 -0.933675 -0.039138
-0.044327 -0.861744 -0.026949
-0.021302 -0.874399 -0.024492
-0.034068 -0.893371 -0.033104
-0.063699 -0.916143 -0.018454
-0.025859 -0.850236 -0.028220
-0.033139 -0.873293 -0.026569
-0.015963 -0.791895 -0.040237
-0.036673 -0.878832 -0.023140
-0.014006 -0.863552 -0.008469
-0.075315 -0.926968 -0.031000
-0.054722 -0.936950 -0.030722
-0.024967 -0.861529 -0.001690
-0.041437 -0.924115 -0.025669
-0.057567 -0.924390 -0.020125
-0.011362 -0.880427 -0.044353
-0.028999 -0.877474 -0.036848
-0.035997 -0.900539 -0.031471
-0.043217 -0.883693 -0.044892
-0.026936 -0.827913 -0.035579
-0.027837 -0.847267 -0.038469
-0.035247 -0.884620 -0.035391
-0.032199 -0.837442 -0.008319
-0.064569 -0.896805 -0.005205
-0.041608 -0.914124 -0.018331
-0.014960 -0.821333 -0.048350
-0.016712 -0.885480 -0.047868
-0.055358 -0.934850 -0.016584
-0.009805 -0.806097 -0.020598
-0.030090 -0.823980 -0.033157
-0.040598 -0.865057 -0.001619
-0.035737 -0.922012 -0.018210
-0.047596 -0.894415 -0.049649
-0.032598 -0.884638 -0.028209
-0.016444 -0.838891 -0.037402
-0.036914 -0.895163 -0.026100
-0.017219 -0.790292 -0.025175
-0.023047 -0.792296 -0.025567
-0.034978 -0.919162 -0.011572
-0.048132 -0.923141 -0.019660
-0.034114 -0.896196 -0.006697
-0.027963 -0.820194 -0.015043
-0.030012 -0.863960 -0.027836
-0.039204 -0.933280 -0.008091
-0.023130 -0.838770 -0.031594
-0.044335 -0.898969 -0.032749
-0.039357 -0.870212 -0.030885
-0.024028 -0.853630 -0.027148
-0.022951 -0.794119 -0.039491
-0.008525 -0.805586 -0.026227
-0.024117 -0.935900 -0.011032
-0.055301 -0.902496 -0.021960
-0.016434 -0.839634 -0.058890
-0.010341 -0.780557 -0.041239
-0.046993 -0.866413 -0.012781
-0.055180 -0.900506 0.004614
-0.033244 -0.931388 -0.020652
-0.038629 -0.866685 -0.055959
-0.058014 -0.871450 -0.034808
-0.017447 -0.820754 -0.014131
-0.042473 -0.925798 -0.044542
-0.045158 -0.928376 -0.018598
-0.037804 -0.812064 -0.040275
-0.049712 -0.865788 -0.037105
-0.032031 -0.854249 -0.030026
-0.017755 -0.835724 -0.040773
-0.034105 -0.923925 -0.030129
-0.038323 -0.786338 -0.031970
-0.027397 -0.806058 -0.035427
-0.050744 -0.937661 -0.019701
-0.014073 -0.822742 -0.037220
-0.035456 -0.915124 -0.011996
-0.042836 -0.928789 -0.015989
-0.023421 -0.775034 -0.031689
-0.013765 -0.791869 -0.042143
-0.047811 -0.853955 -0.043801
-0.044854 -0.922230 0.011877
-0.040423 -0.931588 -0.046168
-0.036402 -0.936688 -0.037358
-0.032494 -0.785572 -0.034241
-0.041187 -0.865878 -0.016091
-0.004393 -0.816810 -0.022271
-0.044879 -0.927924 -0.044299
-0.060810 -0.913945 -0.037741
0.005237 -0.796086 -0.034800
-0.014307 -0.818064 -0.038919
-0.002339 -0.781907 -0.035250
-0.013528 -0.836385 -0.023027
-0.037389 -0.896012 -0.005735
-0.053192 -0.896097 -0.027399
-0.026681 -0.888288 -0.052239
-0.028207 -0.819396 -0.014947
-0.050244 -0.872203 -0.045736
-0.039014 -0.901132 -0.023439
0.002524 -0.832047 -0.021622
-0.054216 -0.894483 -0.006789
-0.011006 -0.837166 -0.016097
-0.007706 -0.779862 -0.049770
-0.049826 -0.904829 -0.003171
-0.043622 -0.928561 -0.048847
-0.019717 -0.811217 -0.026728
-0.012834 -0.787491 -0.038056
-0.028729 -0.815940 -0.044303
-0.031746 -0.885826 -0.047602
-0.019655 -0.817290 -0.047509
-0.009935 -0.804670 -0.056069
-0.032785 -0.917051 -0.014782
-0.022943 -0.799610 -0.029734
0.005535 -0.782332 -0.038457
-0.035773 -0.824184 -0.017626
-0.027854 -0.795172 -0.031816
-0.001297 -0.779882 -0.031377
-0.011404 -0.807669 -0.032885
-0.043499 -0.858586 -0.040553
-0.033255 -0.911374 -0.030275
-0.020417 -0.794518 -0.034617
-0.043488 -0.901847 -0.035743
-0.040367 -0.884793 -0.016951
-0.010477 -0.813970 -0.037342
-0.031859 -0.789039 -0.018105
-0.028054 -0.791002 -0.056788
-0.021403 -0.905697 -0.003518
-0.035257 -0.840396 -0.048243
-0.036161 -0.864730 -0.025484
-0.042365 -0.938600 -0.029516
-0.055131 -0.927013 -0.014738
-0.008984 -0.801792 -0.022259
-0.011958 -0.783980 -0.065065
-0.051128 -0.859359 -0.021668
-0.017933 -0.849556 -0.014245
-0.028160 -0.879691 -0.010562
-0.031582 -0.818109 -0.014577
-0.041189 -0.854739 -0.028085
-0.018506 -0.859241 -0.053540
-0.063844 -0.912730 -0.042633
-0.041380 -0.910148 -0.019522
-0.008124 -0.870728 -0.042173
-0.055940 -0.904466 0.002658
-0.051408 -0.906666 -0.015110
-0.041427 -0.861217 -0.054565
-0.009847 -0.815702 -0.031036
-0.015495 -0.792442 -0.038663
-0.015312 -0.799755 -0.054147
-0.031101 -0.856135 -0.025009
-0.045277 -0.882663 -0.021089
-0.041653 -0.839926 -0.029236
-0.045545 -0.919611 -0.019166
-0.047055 -0.897478 -0.023598
-0.047981 -0.889579 -0.034067
-0.043406 -0.924695 0.012906
-0.034866 -0.857870 -0.005853
-0.014458 -0.880120 -0.033680
-0.033321 -0.927580 -0.032756
-0.039797 -0.900577 -0.019626
-0.027911 -0.898764 -0.013805
-0.039405 -0.901542 -0.024646
-0.036455 -0.894650 -0.016717
-0.031915 -0.904064 -0.008721
-0.025528 -0.937699 -0.033539
-0.062740 -0.885152 -0.010904
-0.042370 -0.860102 -0.023021
-0.065000 -0.944678 -0.040612
-0.025707 -0.844527 -0.030799
-0.024445 -0.809348 -0.031500
-0.051222 -0.917467 -0.003204
-0.002563 -0.810865 -0.054607
-0.045986 -0.932747 -0.022579
-0.045758 -0.879608 -0.030401
0.000094 -0.789495 -0.033783
-0.007194 -0.779023 -0.018183
-0.052326 -0.944167 -0.006685
-0.013377 -0.813576 -0.042686
-0.011653 -0.906149 -0.026823
-0.016081 -0.896472 -0.028274
-0.041136 -0.867385 -0.051723
-0.030868 -0.934858 -0.002279
-0.024076 -0.815867 -0.012396
-0.021085 -0.838028 -0.027756
-0.048981 -0.939840 -0.020964
-0.039356 -0.899494 -0.019709
-0.035045 -0.869613 -0.026079
-0.030466 -0.935962 0.005980
-0.025331 -0.854773 -0.034048
-0.034279 -0.943572 -0.024468
-0.010148 -0.806759 -0.008889
-0.045440 -0.919744 -0.018016
-0.052720 -0.889382 -0.044148
-0.016201 -0.839687 -0.042557
-0.042557 -0.884797 -0.039020
-0.048559 -0.845980 -0.038472
-0.033278 -0.846015 -0.028615
-0.019078 -0.793223 -0.031369
-0.053270 -0.852703 -0.021627
-0.051173 -0.933130 0.011501
-0.038381 -0.898946 -0.045458
-0.032361 -0.880727 -0.052390
-0.043556 -0.907848 -0.027662
-0.000749 -0.811403 -0.053679
-0.030563 -0.840004 -0.027515
-0.011057 -0.864698 -0.042882
-0.020549 -0.859077 -0.021336
-0.019427 -0.842731 -0.036964
-0.045282 -0.835999 -0.042022
-0.022003 -0.809174 -0.059446
-0.027094 -0.857382 -0.033022
-0.027082 -0.909028 -0.010897
-0.047110 -0.943193 0.009610
-0.008471 -0.850282 -0.027024
-0.020560 -0.836994 -0.025371
-0.019614 -0.917200 -0.029357
-0.022252 -0.852167 -0.022639
-0.043271 -0.926636 -0.048992
-0.066991 -0.936556 -0.014867
-0.023616 -0.816254 -0.045048
-0.019908 -0.883100 -0.049927
-0.020874 -0.816305 -0.039007
-0.046790 -0.946785 -0.012329
-0.043323 -0.868093 -0.006831
-0.024972 -0.825076 -0.044594
-0.058403 -0.900871 -0.015569
-0.030567 -0.852821 -0.034147
-0.046643 -0.900887 -0.014909
-0.050993 -0.903953 -0.017697
-0.047264 -0.945843 -0.019262
-0.040160 -0.835534 -0.030070
-0.042886 -0.876222 -0.029543
-0.027447 -0.818733 -0.028910
-0.013273 -0.796685 -0.016484
-0.038192 -0.835938 -0.030396
-0.006157 -0.839505 -0.021455
-0.040341 -0.869643 -0.025201
-0.032122 -0.853054 -0.014022
-0.006387 -0.858109 -0.034067
-0.063405 -0.919970 -0.035647
-0.058274 -0.922870 -0.017744
-0.025844 -0.949833 -0.026431
-0.060290 -0.931206 -0.030442
-0.042007 -0.892566 -0.010866
-0.041134 -0.899112 -0.023476
-0.005344 -0.838734 -0.022722
-0.026787 -0.835395 -0.028295
-0.000338 -0.810205 -0.026045
-0.044937 -0.891675 -0.026618
-0.040580 -0.921073 -0.032203
-0.028546 -0.925825 -0.017054
-0.035243 -0.832706 -0.042768
-0.024637 -0.864693 -0.046079
-0.021522 -0.830479 -0.005460
-0.024814 -0.850064 -0.035838
-0.012353 -0.786340 -0.063157
-0.031404 -0.937833 -0.014658
-0.025642 -0.873566 -0.034481
-0.026427 -0.886960 -0.006735
-0.027400 -0.950965 -0.029754
-0.060540 -0.863269 -0.030338
-0.019006 -0.900409 -0.023860
-0.015069 -0.783147 -0.038283
-0.032607 -0.921956 -0.043322
-0.008614 -0.809525 -0.043032
-0.032974 -0.854957 -0.039004
-0.006574 -0.784300 -0.050546
-0.033867 -0.845362 -0.005105
-0.009618 -0.803374 -0.038798
-0.035914 -0.877004 -0.018569
-0.057014 -0.882190 -0.020140
-0.017626 -0.809064 -0.035861
-0.000623 -0.814268 -0.056920
-0.032796 -0.868814 -0.031707
-0.024191 -0.949804 -0.034827
-0.031983 -0.806356 -0.036891
-0.023009 -0.869667 -0.014918
-0.025614 -0.841435 -0.033237
-0.030538 -0.931278 -0.044321
-0.046390 -0.894621 -0.029761
-0.050758 -0.891184 -0.006766
-0.049153 -0.902030 -0.034919
-0.021089 -0.800569 -0.044019
-0.036711 -0.844056 -0.051178
-0.068881 -0.912808 -0.024072
-0.064780 -0.922893 -0.024496
-0.030648 -0.874860 -0.026135
-0.065514 -0.912904 -0.023019
-0.040124 -0.806287 -0.028031
-0.028179 -0.836045 -0.032400
-0.014855 -0.818606 -0.022879
-0.047733 -0.846148 -0.030896
-0.018030 -0.885320 -0.024040
-0.045539 -0.917476 -0.025408
-0.037187 -0.930676 -0.024633
-0.036985 -0.943434 -0.008460
-0.056776 -0.860265 -0.022185
-0.034991 -0.876412 -0.024934
-0.045441 -0.875135 -0.049313
-0.028526 -0.888292 -0.038195
-0.027390 -0.838796 -0.038558
-0.025745 -0.842891 -0.006432
-0.055143 -0.937901 -0.019220
-0.006991 -0.811910 -0.036791
-0.030415 -0.887991 -0.038922
-0.035013 -0.818774 -0.031290
0.006908 -0.829911 -0.031466
-0.009542 -0.811033 -0.027557
-0.004271 -0.850001 -0.020370
-0.039986 -0.908298 -0.015360
-0.015535 -0.780487 -0.062447
-0.055027 -0.908124 -0.017630
-0.055962 -0.925715 -0.030469
-0.033749 -0.843783 -0.026712
-0.020948 -0.909170 -0.016491
-0.052632 -0.904545 -0.025455
-0.019249 -0.831745 -0.032181
-0.020347 -0.949279 -0.011088
-0.045336 -0.875284 -0.037126
-0.019382 -0.839175 -0.053159
-0.053269 -0.874965 -0.037760
-0.035347 -0.881210 -0.054824
-0.041689 -0.906217 -0.019771
-0.030018 -0.905498 -0.040622
-0.047517 -0.824777 -0.039289
-0.022973 -0.845509 -0.033700
-0.074942 -0.932503 -0.014746
-0.046787 -0.859464 -0.008323
-0.044833 -0.890583 -0.020389
0.009810 -0.785797 -0.054175
-0.009952 -0.800283 -0.029447
-0.044644 -0.842215 -0.018706
-0.047036 -0.815418 -0.026947
-0.041440 -0.883151 -0.019960
-0.044482 -0.901061 -0.051880
-0.009848 -0.803271 -0.051218
-0.024670 -0.803949 -0.050991
-0.011195 -0.787586 -0.040694
-0.000597 -0.784608 -0.040780
-0.031539 -0.857815 -0.040082
-0.015002 -0.806523 -0.043200
-0.035911 -0.790488 -0.031298
-0.018544 -0.797349 -0.052913
-0.015263 -0.786594 -0.064605
-0.028023 -0.826530 -0.032240
-0.038841 -0.886875 -0.025121
-0.015883 -0.929459 -0.022735
-0.037336 -0.809858 -0.018913
-0.050458 -0.898799 0.002071
-0.001177 -0.781821 -0.044712
-0.029552 -0.833087 -0.034031
-0.023971 -0.832484 -0.029377
-0.033335 -0.875051 -0.026357
-0.021263 -0.928514 -0.038771
-0.024747 -0.928308 -0.024378
-0.047713 -0.934742 -0.018314
-0.030845 -0.853712 -0.033460
-0.029697 -0.844206 -0.058091
-0.016462 -0.818326 -0.038817
-0.033013 -0.896937 -0.023356
-0.061292 -0.907526 -0.039133
-0.046741 -0.877207 -0.016083
-0.040454 -0.875863 0.002166
-0.012163 -0.784779 -0.036887
-0.034847 -0.868136 -0.020871
-0.049026 -0.917356 -0.028203
-0.026029 -0.780973 -0.057532
-0.034892 -0.823501 -0.031359
-0.044721 -0.891344 -0.025879
-0.028324 -0.810936 -0.023410
-0.016420 -0.840295 -0.010614
-0.024880 -0.829100 -0.029363
-0.008058 -0.804293 -0.049700
-0.036367 -0.944237 -0.026083
-0.032932 -0.922809 -0.048069
-0.013341 -0.779844 -0.041588
-0.018048 -0.809720 -0.033078
-0.037714 -0.806541 -0.025017
-0.018403 -0.827518 -0.034461
-0.025313 -0.811564 -0.060083
-0.037842 -0.932862 -0.003738
-0.047870 -0.911950 -0.016642
-0.017190 -0.808299 -0.033651
-0.036266 -0.883358 -0.028783
-0.047230 -0.941340 -0.007152
-0.014283 -0.791993 -0.030350
-0.044919 -0.930904 -0.015908
-0.018743 -0.929459 -0.009918
-0.023711 -0.835381 -0.014419
-0.025422 -0.879567 -0.016994
-0.019194 -0.826403 -0.019335
-0.026166 -0.817630 -0.053020
-0.023654 -0.776915 -0.038193
-0.039643 -0.815415 -0.018912
-0.013687 -0.776615 -0.015769
-0.018661 -0.923537 -0.024292
-0.041325 -0.865126 -0.053051
-0.014897 -0.794963 -0.038466
-0.052225 -0.929491 -0.039808
-0.030451 -0.871534 -0.025280
-0.029887 -0.832405 -0.054386
-0.027863 -0.869140 -0.010713
-0.048772 -0.869779 -0.029542
-0.022091 -0.863906 -0.026835
-0.018016 -0.830881 -0.026712
-0.042531 -0.915439 -0.006478
-0.034260 -0.779916 -0.028576
-0.039964 -0.804421 -0.039564
-0.054327 -0.844148 -0.027880
-0.009962 -0.793753 -0.048177
-0.023364 -0.832351 -0.034384
-0.000323 -0.793900 -0.044301
-0.033360 -0.794252 -0.018459
-0.032041 -0.899731 -0.035369
-0.029485 -0.842744 -0.032231
-0.018738 -0.804983 -0.027784
-0.011502 -0.803298 -0.042684
-0.016407 -0.812748 -0.036317
-0.004766 -0.818533 -0.023833
-0.024726 -0.874628 -0.011689
-0.042261 -0.919987 -0.027322
-0.023217 -0.829859 -0.037554
-0.018611 -0.814792 -0.034378
-0.033979 -0.875977 -0.016302
-0.028789 -0.898700 -0.050778
-0.042279 -0.863794 -0.047720
-0.057991 -0.924764 -0.002795
-0.014750 -0.840921 -0.024588
-0.005225 -0.780034 -0.039450
-0.052458 -0.893193 -0.010431
-0.002480 -0.789524 -0.058164
-0.033605 -0.827103 -0.040389
-0.017838 -0.783964 -0.036201
-0.060740 -0.914222 -0.007953
0.006498 -0.812919 -0.022206
-0.017454 -0.844148 -0.019682
-0.033393 -0.821302 -0.022947
-0.046694 -0.933785 -0.024677
-0.032676 -0.857240 -0.023907
-0.018575 -0.845709 -0.018436
-0.054223 -0.904587 -0.026049
-0.045846 -0.929657 -0.023182
-0.045690 -0.922513 -0.016493
-0.034881 -0.914793 -0.018690
-0.028481 -0.848628 -0.028703
-0.028655 -0.791421 -0.026367
-0.002243 -0.787010 -0.044462
-0.031385 -0.832203 -0.020889
-0.001203 -0.817938 -0.012797
-0.030442 -0.940192 -0.024617
-0.031603 -0.775079 -0.033560
0.003216 -0.839276 -0.031084
-0.015251 -0.805795 -0.037954
-0.039548 -0.904704 -0.030648
-0.062283 -0.883549 -0.026264
-0.054378 -0.872314 -0.018073
-0.011053 -0.790299 -0.058019
-0.055732 -0.934051 -0.009054
-0.032355 -0.884059 -0.027591
-0.009971 -0.796548 -0.041128
-0.015072 -0.792764 -0.033502
-0.060798 -0.879157 -0.020297
-0.029468 -0.781044 -0.043820
-0.049816 -0.828993 -0.026130
-0.022996 -0.844068 -0.023080
-0.035912 -0.836276 -0.014999
-0.052377 -0.890449 -0.036330
-0.016779 -0.882366 -0.037001
-0.012136 -0.780452 -0.040514
-0.052901 -0.846319 -0.017210
-0.018543 -0.824019 -0.008715
-0.016138 -0.829547 -0.030740
-0.023754 -0.840859 -0.026059
-0.049039 -0.836658 -0.035208
-0.024964 -0.795097 -0.043909
-0.051129 -0.945743 -0.014050
-0.023772 -0.801753 -0.044290
-0.010290 -0.884346 -0.026854
-0.045811 -0.888962 -0.001045
-0.036110 -0.887137 -0.014183
-0.027568 -0.849822 -0.028714
-0.028290 -0.776540 -0.030684
-0.037620 -0.907798 -0.010560
-0.013335 -0.926178 -0.016377
-0.036363 -0.939438 0.008705
-0.045656 -0.916907 -0.048373
-0.060953 -0.940668 -0.037700
-0.030666 -0.860689 -0.024371
-0.036282 -0.832296 -0.030266
-0.023405 -0.800367 -0.057726
-0.055651 -0.936072 -0.008022
-0.051087 -0.930497 -0.008068
-0.052194 -0.886155 -0.031760
-0.012061 -0.812664 -0.015658
-0.041583 -0.933140 0.006220
-0.031367 -0.806298 -0.012349
-0.054137 -0.840160 -0.022809
-0.021858 -0.818639 -0.048641
-0.023748 -0.819290 -0.036719
-0.028834 -0.858656 -0.028072
-0.026322 -0.840474 -0.029593
-0.014830 -0.817047 -0.035093
-0.031782 -0.833920 -0.044068
-0.006413 -0.791334 -0.034352
-0.050501 -0.914344 -0.012087
-0.041925 -0.895668 -0.026018
-0.052210 -0.894719 -0.041297
-0.058446 -0.939732 -0.030084
-0.009636 -0.793233 -0.032609
-0.017771 -0.913969 -0.021858
-0.025386 -0.893118 -0.026458
-0.014231 -0.811887 -0.038446
-0.027390 -0.846151 -0.055185
-0.009540 -0.777822 -0.019485
-0.018880 -0.941031 -0.024460
-0.017210 -0.787872 -0.043007
-0.034439 -0.815594 -0.031722
-0.028857 -0.853714 -0.046530
-0.014628 -0.797790 -0.023929
-0.015591 -0.895073 -0.023710
-0.016765 -0.806778 -0.034995
-0.021102 -0.886656 -0.046927
-0.052708 -0.928072 -0.032053
-0.029943 -0.894870 -0.035208
-0.004648 -0.809444 -0.028236
-0.015822 -0.833535 -0.021204
-0.018269 -0.836651 -0.034822
-0.053070 -0.876055 -0.010904
-0.018531 -0.850815 -0.047375
-0.065035 -0.930038 0.008978
-0.055975 -0.898514 -0.041893
-0.018827 -0.794885 -0.040959
-0.023460 -0.833277 -0.041612
-0.042240 -0.893365 -0.003843
-0.016785 -0.837411 -0.043576
-0.012462 -0.782115 -0.036263
-0.016482 -0.867601 -0.047082
-0.030762 -0.850173 -0.033922
-0.027268 -0.917842 -0.039452
-0.031059 -0.889707 0.000699
-0.043981 -0.920914 -0.016578
-0.077105 -0.934762 -0.000988
-0.016212 -0.821132 -0.015172
0.007258 -0.800049 -0.053546
-0.029480 -0.853727 -0.010368
-0.018621 -0.835251 -0.049188
-0.040647 -0.897971 -0.025801
-0.032810 -0.933558 -0.035081
-0.032144 -0.827652 -0.056532
-0.006939 -0.786547 -0.042175
-0.033508 -0.916122 -0.014373
-0.029684 -0.910484 -0.022042
-0.028003 -0.866988 -0.027617
-0.049338 -0.940266 -0.016388
-0.051440 -0.901931 -0.008718
-0.014735 -0.794560 -0.044414
-0.011357 -0.828209 -0.022468
-0.019110 -0.899021 -0.020611
-0.053133 -0.929903 -0.009189
-0.033207 -0.838156 -0.029571
-0.010366 -0.776255 -0.027224
-0.014757 -0.873936 -0.039650
-0.018000 -0.789102 -0.039522
-0.054320 -0.934356 -0.013960
-0.055518 -0.915498 -0.011282
-0.008747 -0.798540 -0.046148
-0.043249 -0.908262 -0.023181
-0.014277 -0.835791 -0.025991
-0.031466 -0.811856 -0.032005
-0.017118 -0.816268 -0.032930
-0.009782 -0.782504 -0.042065
-0.037105 -0.852271 -0.015121
-0.041971 -0.866355 -0.037713
-0.044023 -0.855806 -0.021735
-0.020586 -0.848494 -0.010155
-0.045214 -0.916919 -0.039448
-0.065541 -0.933632 0.003302
-0.036748 -0.875697 -0.011378
-0.027956 -0.880884 -0.030660
-0.021439 -0.821249 -0.033581
-0.035464 -0.882904 -0.024783
-0.028544 -0.860541 -0.011800
-0.037155 -0.889809 -0.024800
-0.029423 -0.883923 -0.009820
-0.026987 -0.840657 -0.033729
-0.028101 -0.889267 -0.028098
-0.036972 -0.867715 -0.018646
-0.045785 -0.835226 -0.033165
-0.038426 -0.914545 -0.020168
-0.041140 -0.912213 -0.049008
-0.037920 -0.887016 -0.032303
-0.034373 -0.849747 -0.051127
-0.034051 -0.885038 -0.022773
-0.015375 -0.840165 -0.022011
-0.034170 -0.869804 -0.028475
-0.022350 -0.778653 -0.039092
-0.036187 -0.927967 0.008291
-0.037913 -0.942287 -0.029868
-0.015913 -0.865163 -0.012248
-0.013471 -0.920628 -0.021680
-0.006116 -0.788148 -0.033433
-0.006120 -0.834006 -0.052151
-0.043621 -0.943948 -0.011328
-0.009836 -0.892488 -0.020501
-0.051047 -0.907608 -0.025862
-0.052293 -0.911483 -0.019956
-0.020108 -0.871186 -0.023351
-0.040005 -0.937126 -0.004687
-0.053675 -0.879847 -0.047909
-0.012177 -0.803508 -0.038778
-0.039583 -0.913825 -0.021242
-0.028175 -0.812766 -0.055821
-0.037613 -0.927306 -0.044384
-0.031645 -0.847266 -0.031920
-0.037039 -0.866323 -0.038060
-0.040671 -0.866155 -0.011869
-0.014109 -0.801193 -0.036847
-0.046501 -0.918507 -0.022174
-0.001889 -0.780648 -0.029617
-0.024958 -0.857680 -0.019300
-0.033104 -0.949107 -0.012399
-0.009815 -0.816196 -0.038802
-0.022604 -0.871192 -0.015762
-0.036752 -0.885369 -0.022823
-0.033443 -0.921817 -0.006057
-0.040660 -0.904012 -0.053772
-0.007657 -0.826135 -0.012765
-0.026785 -0.850542 -0.029411
-0.014033 -0.796562 -0.037679
-0.060533 -0.914787 -0.021025
-0.017641 -0.846611 -0.017031
-0.053924 -0.926012 -0.025804
-0.034860 -0.868516 -0.003364
-0.026160 -0.848939 -0.034327
-0.016104 -0.795063 -0.045801
-0.016584 -0.842813 -0.016841
-0.009001 -0.791505 -0.031688
-0.047003 -0.895204 0.002474
-0.023415 -0.819441 -0.012918
-0.023834 -0.826907 -0.006652
-0.012957 -0.781295 -0.053505
-0.008893 -0.805040 -0.020720
-0.048364 -0.942285 -0.018289
-0.005001 -0.829936 -0.025873
-0.017881 -0.873290 -0.034770
-0.022763 -0.818045 -0.037819
-0.045869 -0.937163 -0.016543
-0.040329 -0.911536 -0.032203
-0.031967 -0.878773 -0.027113
-0.015351 -0.844025 -0.010821
-0.038071 -0.884972 -0.001412
-0.024373 -0.843780 -0.048352
-0.028585 -0.907143 -0.006719
-0.016563 -0.840783 -0.026679
-0.066087 -0.910657 -0.011511
-0.036561 -0.950562 -0.026668
-0.035598 -0.880168 -0.044270
-0.060844 -0.930522 -0.040969
-0.027017 -0.837658 -0.025396
-0.009772 -0.788185 -0.015749
-0.051096 -0.924784 -0.017765
-0.023133 -0.809892 -0.057863
-0.043913 -0.923190 -0.018509
-0.049249 -0.854640 -0.029121
-0.017073 -0.855577 -0.006574
-0.066594 -0.922471 -0.000973
-0.013456 -0.809908 -0.042132
-0.024182 -0.840898 -0.020789
-0.042326 -0.809386 -0.020008
0.000802 -0.777602 -0.017797
-0.010659 -0.778592 -0.039415
-0.007710 -0.820965 -0.013040
-0.066810 -0.924086 0.006097
-0.055345 -0.935598 -0.002147
-0.038157 -0.891115 -0.025236
-0.033153 -0.879777 -0.030139
-0.021360 -0.951492 -0.028126
-0.048866 -0.905264 -0.038583
-0.042900 -0.893939 -0.013417
-0.031673 -0.846703 -0.021025
-0.030550 -0.826804 -0.027793
-0.012018 -0.779043 -0.038387
-0.052479 -0.930514 -0.018918
-0.047894 -0.906442 -0.022686
-0.031302 -0.942626 -0.015880
0.004152 -0.833069 -0.039767
-0.030240 -0.913194 -0.049693
-0.046039 -0.944803 -0.022360
-0.044163 -0.917133 -0.003719
-0.036465 -0.897939 -0.024804
-0.059440 -0.884528 -0.031510
-0.025568 -0.873250 -0.004180
-0.015171 -0.886938 -0.008251
-0.035648 -0.895715 -0.024604
-0.020727 -0.819256 -0.038247
-0.026722 -0.903219 0.000892
-0.013250 -0.793643 -0.035665
-0.029246 -0.857948 -0.025523
-0.013536 -0.825218 -0.032020
-0.055765 -0.894000 -0.025636
-0.067311 -0.904482 -0.009365
-0.037681 -0.867810 -0.035311
-0.004148 -0.813828 -0.049697
-0.036402 -0.888386 -0.024433
-0.025907 -0.937817 -0.029386
-0.034820 -0.881800 -0.025893
-0.001276 -0.848302 -0.041771
-0.009938 -0.808671 -0.046511
-0.040496 -0.903126 -0.027743
-0.056280 -0.909026 -0.018066
-0.024607 -0.913450 -0.033220
-0.044646 -0.940200 -0.017048
-0.038345 -0.840463 -0.055705
-0.038332 -0.935814 -0.019454
-0.014806 -0.845545 -0.033094
-0.032192 -0.895806 -0.000104
-0.013232 -0.808184 -0.025603
-0.033691 -0.872496 -0.019743
-0.037447 -0.923777 -0.033536
-0.056973 -0.920808 -0.037906
-0.012213 -0.826075 -0.008487
-0.073370 -0.912172 -0.025728
-0.024159 -0.780809 -0.029768
-0.051241 -0.866229 -0.020890
-0.008137 -0.788668 -0.032189
-0.040490 -0.917933 -0.038591
-0.020316 -0.872104 -0.026515
-0.042292 -0.835226 -0.047724
-0.061183 -0.890860 -0.003097
-0.043691 -0.932914 -0.020758
-0.028699 -0.884792 0.000106
-0.038868 -0.897885 -0.022865
-0.048543 -0.880569 0.001662
-0.037691 -0.886945 -0.037192
-0.014401 -0.836282 -0.028559
-0.034631 -0.890383 -0.040665
-0.007762 -0.809795 -0.009462
-0.019155 -0.840734 -0.049374
0.004094 -0.831062 -0.038111
-0.038621 -0.897888 -0.023090
-0.022268 -0.857614 -0.037666
-0.003192 -0.829654 -0.031676
-0.015771 -0.802357 -0.036837
-0.016653 -0.849741 -0.027264
-0.010824 -0.779766 -0.040624
-0.025640 -0.830000 -0.022198
