ply
format ascii 1.0
element vertex 1667
property float x
property float y
property float z
end_header
-0.026143 0.039048 -0.036487
-0.026817 0.066113 -0.036550
-0.031244 0.081271 -0.044214
-0.029200 0.053682 -0.029393
-0.020373 0.017248 -0.026350
-0.026680 0.030801 -0.027988
-0.025452 0.053880 -0.039294
-0.028381 0.023265 -0.015298
-0.022453 0.042614 -0.033022
-0.024307 0.053246 -0.028153
-0.024925 0.034530 -0.026065
-0.030564 0.057541 -0.040262
-0.033205 0.058507 -0.034215
-0.024431 0.071274 -0.038399
-0.031457 0.046959 -0.030313
-0.024630 0.036313 -0.026920
-0.025412 0.018686 -0.011865
-0.032381 0.026290 -0.026633
-0.027205 0.080364 -0.046368
-0.023960 0.028392 -0.022205
-0.025181 0.017767 -0.024183
-0.024016 0.008479 -0.017353
-0.021578 0.008377 -0.026004
-0.020016 0.047138 -0.034181
-0.028407 0.049870 -0.030222
-0.024684 0.027860 -0.030851
-0.029205 0.044695 -0.037156
-0.023152 0.043405 -0.029901
-0.020722 0.019819 -0.020401
-0.030052 0.040496 -0.027463
-0.029522 0.028813 -0.018076
-0.016778 0.017566 -0.025398
-0.031776 0.076523 -0.047646
-0.026169 0.045898 -0.034885
-0.025220 0.054502 -0.033694
-0.028233 0.035986 -0.028953
-0.023444 0.024662 -0.022225
-0.024515 0.069649 -0.041876
-0.029369 0.032152 -0.030257
-0.026324 0.037361 -0.025017
-0.023932 0.046001 -0.034793
-0.015499 0.019815 -0.018516
-0.018318 0.010363 -0.009002
-0.026856 0.070659 -0.037464
-0.029490 0.033128 -0.032686
-0.027589 0.029099 -0.024055
-0.015059 0.006081 -0.012683
-0.022181 0.054844 -0.033548
-0.032598 0.046326 -0.027031
-0.027734 0.056059 -0.036353
-0.031632 0.035045 -0.021422
-0.027396 0.072793 -0.040921
-0.022110 0.022026 -0.019887
-0.025587 0.047161 -0.030486
-0.021330 0.037362 -0.024713
-0.026247 0.102591 -0.044588
-0.030488 0.123060 -0.057658
-0.027363 0.102134 -0.046378
-0.034793 0.104433 -0.052473
-0.030689 0.097605 -0.051336
-0.029883 0.103275 -0.048119
-0.034843 0.087203 -0.044114
-0.030683 0.107367 -0.048454
-0.029581 0.115238 -0.046074
-0.028747 0.088096 -0.044163
-0.028398 0.105003 -0.052288
-0.026295 0.094434 -0.045480
-0.030982 0.114165 -0.044810
-0.028552 0.108310 -0.051636
-0.026307 0.099099 -0.051225
-0.029428 0.106475 -0.047774
-0.028688 0.108131 -0.047710
-0.028855 0.114840 -0.045335
-0.027425 0.127142 -0.052565
-0.035247 0.142116 -0.054512
-0.039397 0.177956 -0.070402
-0.036949 0.148357 -0.062380
-0.036522 0.161716 -0.065161
-0.033015 0.145896 -0.055422
-0.039868 0.177854 -0.071619
-0.030193 0.142864 -0.057015
-0.036288 0.160355 -0.065574
-0.044179 0.174522 -0.072218
-0.035731 0.146799 -0.065062
-0.033542 0.161710 -0.059764
-0.045830 0.177446 -0.071370
-0.040489 0.176011 -0.068958
-0.029134 0.145214 -0.063197
-0.036488 0.161729 -0.066987
-0.033717 0.147627 -0.059543
-0.036810 0.172174 -0.067406
-0.035636 0.153678 -0.062738
-0.041040 0.152023 -0.060693
-0.034392 0.142923 -0.060734
-0.031759 0.163224 -0.067851
-0.032193 0.165441 -0.067483
-0.035349 0.176904 -0.068640
-0.039633 0.208042 -0.080941
-0.038435 0.192685 -0.080389
-0.039722 0.213623 -0.082349
-0.045323 0.184695 -0.070740
-0.038212 0.182274 -0.072846
-0.035185 0.185799 -0.074577
-0.038313 0.230019 -0.086796
-0.039628 0.207222 -0.085264
-0.038625 0.184947 -0.075976
-0.037433 0.209322 -0.080731
-0.040557 0.198486 -0.071933
-0.038562 0.232348 -0.086955
-0.043780 0.227575 -0.086203
-0.043660 0.231929 -0.085589
-0.044590 0.204464 -0.081813
-0.037651 0.232971 -0.081672
-0.044734 0.203419 -0.076082
-0.041505 0.190022 -0.072616
-0.042044 0.221704 -0.086287
-0.039737 0.195511 -0.076396
-0.038562 0.206395 -0.082373
-0.036725 0.221833 -0.085203
-0.052987 0.261018 -0.114623
-0.055421 0.263543 -0.114806
-0.057529 0.259935 -0.111106
-0.043141 0.231173 -0.090143
-0.041633 0.236165 -0.092194
-0.044332 0.241527 -0.098723
-0.043034 0.239777 -0.093919
-0.048701 0.250575 -0.107511
-0.043384 0.236231 -0.098855
-0.055768 0.260495 -0.109705
-0.043910 0.246822 -0.101945
-0.055088 0.259092 -0.115013
-0.058833 0.267712 -0.120358
-0.039716 0.232753 -0.089242
-0.037292 0.232858 -0.088535
-0.054415 0.262085 -0.119054
-0.046367 0.236170 -0.093186
-0.059789 0.267408 -0.119770
-0.076478 0.301738 -0.138033
-0.061644 0.274850 -0.123171
-0.079420 0.297452 -0.136546
-0.074187 0.297566 -0.136639
-0.081359 0.303624 -0.141792
-0.081028 0.301650 -0.139956
-0.073729 0.289847 -0.131580
-0.066505 0.283617 -0.127653
-0.071074 0.284221 -0.131246
-0.072313 0.292004 -0.136032
-0.086110 0.308522 -0.149293
-0.091955 0.320449 -0.166252
-0.095564 0.320949 -0.172114
-0.088437 0.314342 -0.156553
-0.088004 0.312105 -0.154834
-0.088662 0.314075 -0.156277
-0.092385 0.315570 -0.165217
-0.082319 0.306889 -0.143409
-0.081127 0.306341 -0.146021
-0.098470 0.324446 -0.174293
-0.121892 0.348902 -0.207205
-0.114471 0.340701 -0.195398
-0.109747 0.337454 -0.195372
-0.102955 0.327855 -0.180472
-0.103220 0.330403 -0.179881
-0.113128 0.340551 -0.194857
-0.110381 0.340398 -0.194789
-0.100843 0.328175 -0.176681
-0.117620 0.348079 -0.199747
-0.105735 0.327901 -0.183291
-0.124998 0.351303 -0.204534
-0.133177 0.358549 -0.215632
-0.128252 0.351279 -0.211549
-0.136232 0.360652 -0.216487
-0.151614 0.373487 -0.227492
-0.136793 0.358503 -0.216124
-0.124804 0.350391 -0.206279
-0.139636 0.362602 -0.219078
-0.158792 0.379477 -0.233817
-0.125433 0.352065 -0.209454
-0.171274 0.388852 -0.244908
-0.168073 0.387246 -0.241346
-0.169240 0.385376 -0.242846
-0.168599 0.386046 -0.241995
-0.178471 0.391062 -0.249864
-0.180726 0.394328 -0.251937
-0.162780 0.381769 -0.236549
-0.163883 0.384104 -0.236873
-0.160778 0.381373 -0.236668
-0.183324 0.394883 -0.255270
-0.195299 0.401713 -0.262244
-0.187990 0.399546 -0.259174
-0.190184 0.400031 -0.257831
-0.190888 0.399438 -0.259574
-0.192927 0.400777 -0.261295
-0.199180 0.403051 -0.263586
-0.184705 0.398967 -0.256414
-0.193119 0.400812 -0.261556
-0.191074 0.400195 -0.260297
-0.192145 0.400464 -0.260736
-0.214744 0.416102 -0.275272
-0.209999 0.414664 -0.273257
-0.202962 0.405759 -0.267591
-0.207777 0.409286 -0.270867
-0.214084 0.416497 -0.276110
-0.204635 0.408992 -0.268022
-0.216255 0.417212 -0.275766
-0.215711 0.416835 -0.276546
-0.212245 0.413552 -0.272929
-0.203274 0.406740 -0.267499
-0.220645 0.425313 -0.281261
-0.217619 0.417967 -0.277326
-0.218338 0.421299 -0.279489
-0.220143 0.423936 -0.280038
-0.224873 0.430286 -0.285242
-0.219920 0.421966 -0.280635
-0.222939 0.426533 -0.283285
-0.225206 0.429939 -0.285147
-0.216936 0.420161 -0.278491
-0.221392 0.426608 -0.281680
-0.225937 0.432438 -0.287349
-0.229450 0.434751 -0.288539
-0.229261 0.436909 -0.290041
-0.233113 0.441493 -0.294737
-0.231182 0.441258 -0.293642
-0.232358 0.440560 -0.294809
-0.231697 0.441777 -0.294347
-0.232284 0.441613 -0.294254
-0.227212 0.434522 -0.287831
-0.232653 0.440310 -0.294500
-0.241513 0.454600 -0.304947
-0.243664 0.455458 -0.306010
-0.243262 0.455368 -0.307348
-0.244651 0.457406 -0.307676
-0.238480 0.450242 -0.303387
-0.239380 0.449681 -0.301526
-0.246132 0.458782 -0.311744
-0.249311 0.462522 -0.314220
-0.246391 0.459108 -0.310827
-0.246063 0.460263 -0.310548
-0.126343 0.352169 -0.212905
-0.131657 0.354840 -0.224935
-0.135629 0.359491 -0.232758
-0.126167 0.349665 -0.209700
-0.139574 0.360911 -0.242931
-0.129415 0.353072 -0.212772
-0.126868 0.350207 -0.209965
-0.126140 0.354970 -0.216901
-0.131411 0.357839 -0.226731
-0.123269 0.350139 -0.208520
-0.141208 0.368912 -0.249672
-0.140033 0.368704 -0.251286
-0.143750 0.369468 -0.248634
-0.144388 0.373121 -0.252456
-0.144540 0.369686 -0.254386
-0.144092 0.374893 -0.262732
-0.140330 0.363582 -0.242960
-0.144185 0.376030 -0.258509
-0.145788 0.371153 -0.251634
-0.142385 0.368689 -0.249758
-0.144870 0.391998 -0.286489
-0.145278 0.389472 -0.277169
-0.146436 0.392953 -0.282198
-0.146774 0.379645 -0.267742
-0.143800 0.379501 -0.265668
-0.144450 0.392913 -0.282092
-0.145679 0.389348 -0.276194
-0.143494 0.395025 -0.287144
-0.145232 0.379556 -0.270043
-0.144109 0.389719 -0.282649
-0.140740 0.398171 -0.293367
-0.141174 0.401352 -0.294627
-0.138948 0.399956 -0.296336
-0.140558 0.397428 -0.294114
-0.144195 0.395522 -0.287260
-0.142950 0.396793 -0.289573
-0.143891 0.398138 -0.292574
-0.140906 0.398319 -0.295784
-0.142208 0.396512 -0.290698
-0.137769 0.402206 -0.294330
-0.134488 0.406651 -0.298801
-0.135666 0.406030 -0.298246
-0.130646 0.410901 -0.300688
-0.135196 0.407928 -0.298035
-0.134361 0.407778 -0.299653
-0.133239 0.408245 -0.297866
-0.135216 0.406675 -0.298429
-0.137156 0.402394 -0.298608
-0.134898 0.403720 -0.298957
-0.134386 0.405832 -0.299757
-0.128810 0.416640 -0.301947
-0.130000 0.415074 -0.302483
-0.131501 0.412920 -0.301379
-0.131036 0.413202 -0.300552
-0.130191 0.416517 -0.301486
-0.128771 0.417089 -0.302321
-0.130134 0.416173 -0.301070
-0.130996 0.414429 -0.299984
-0.130395 0.416103 -0.302809
-0.130811 0.414063 -0.301295
-0.159924 0.396416 -0.290426
-0.152075 0.386477 -0.278766
-0.146746 0.382592 -0.265167
-0.160149 0.393039 -0.289809
-0.159798 0.393345 -0.289027
-0.145399 0.381438 -0.265246
-0.146921 0.381501 -0.267954
-0.151168 0.383533 -0.270281
-0.165454 0.402717 -0.301698
-0.159170 0.397369 -0.291605
-0.169218 0.408329 -0.308272
-0.169527 0.406202 -0.305852
-0.170393 0.412916 -0.313765
-0.170313 0.414000 -0.313046
-0.169107 0.414932 -0.313321
-0.169835 0.408879 -0.305879
-0.173176 0.417174 -0.318486
-0.168423 0.407240 -0.306367
-0.172567 0.418188 -0.319879
-0.172176 0.414768 -0.312752
-0.177428 0.431039 -0.327110
-0.180410 0.432243 -0.325727
-0.175543 0.428616 -0.324255
-0.173169 0.420605 -0.318752
-0.176995 0.433774 -0.325450
-0.180958 0.438949 -0.327018
-0.181417 0.435532 -0.327200
-0.183409 0.439990 -0.331767
-0.181769 0.436208 -0.329518
-0.182192 0.440268 -0.331569
-0.193023 0.458834 -0.344445
-0.195043 0.461191 -0.344854
-0.189829 0.453565 -0.340331
-0.193816 0.459926 -0.345654
-0.186463 0.448262 -0.338051
-0.190389 0.456498 -0.342186
-0.192707 0.458722 -0.344090
-0.192747 0.457986 -0.343599
-0.193787 0.457652 -0.342010
-0.192656 0.454747 -0.340957
-0.196301 0.465266 -0.350817
-0.198845 0.470735 -0.353676
-0.200400 0.475599 -0.355069
-0.197343 0.471970 -0.352456
-0.197878 0.468823 -0.351462
-0.202305 0.479530 -0.355547
-0.197888 0.469740 -0.352910
-0.200575 0.475083 -0.355296
-0.203730 0.479270 -0.357281
-0.197998 0.464652 -0.349771
-0.198454 0.531112 -0.393916
-0.198870 0.518909 -0.384718
-0.203444 0.485709 -0.360677
-0.199034 0.518421 -0.384317
-0.201914 0.492426 -0.366493
-0.200223 0.508227 -0.377091
-0.201921 0.489608 -0.365174
-0.202152 0.484408 -0.359943
-0.201827 0.488010 -0.362839
-0.201713 0.488001 -0.362756
-0.197886 0.560218 -0.410777
-0.196452 0.553147 -0.407243
-0.196443 0.553527 -0.407474
-0.196958 0.554173 -0.407518
-0.196757 0.552083 -0.406315
-0.196250 0.551811 -0.406931
-0.196693 0.547931 -0.405637
-0.196718 0.552951 -0.406097
-0.196788 0.560518 -0.410257
-0.196727 0.551447 -0.406279
-0.195435 0.568572 -0.415021
-0.192151 0.581018 -0.421623
-0.194844 0.571368 -0.416568
-0.193195 0.576480 -0.419019
-0.197255 0.560562 -0.410674
-0.194104 0.574188 -0.418500
-0.194724 0.569611 -0.415329
-0.193699 0.576112 -0.418881
-0.196887 0.563206 -0.412001
-0.194820 0.573234 -0.417441
-0.191982 0.583788 -0.423107
-0.192122 0.587746 -0.424374
-0.191471 0.586076 -0.424211
-0.191278 0.589582 -0.425465
-0.191822 0.584341 -0.423265
-0.190623 0.591000 -0.426022
-0.191896 0.585189 -0.423580
-0.192063 0.586858 -0.424697
-0.191905 0.587491 -0.423932
-0.191272 0.587029 -0.424189
-0.206442 0.497073 -0.364464
-0.205610 0.498565 -0.365262
-0.203900 0.484259 -0.359417
-0.206725 0.508384 -0.369272
-0.202712 0.486623 -0.360784
-0.206276 0.504055 -0.368032
-0.205969 0.507193 -0.368828
-0.205003 0.502092 -0.368391
-0.206282 0.507451 -0.369074
-0.201776 0.486865 -0.360364
-0.211209 0.517138 -0.374655
-0.212241 0.519021 -0.375164
-0.212435 0.518873 -0.376373
-0.220019 0.519481 -0.379135
-0.214979 0.518530 -0.375308
-0.210888 0.517777 -0.374534
-0.217345 0.519541 -0.380077
-0.214589 0.517719 -0.375285
-0.221495 0.520169 -0.380568
-0.215258 0.518758 -0.375853
-0.214283 0.528609 -0.376479
-0.210404 0.522237 -0.372830
-0.209293 0.516876 -0.373324
-0.211153 0.523554 -0.375552
-0.216135 0.533697 -0.378493
-0.213009 0.527853 -0.378335
-0.213434 0.526375 -0.376457
-0.217060 0.534088 -0.379378
-0.216473 0.538829 -0.381459
-0.212891 0.526043 -0.376633
-0.223924 0.557469 -0.387349
-0.228534 0.566674 -0.391887
-0.228415 0.566243 -0.391732
-0.224710 0.558051 -0.387985
-0.226805 0.563115 -0.390464
-0.225603 0.557264 -0.387867
-0.225659 0.559319 -0.389154
-0.225736 0.561745 -0.388829
-0.222520 0.551603 -0.384727
-0.222476 0.550590 -0.385351
-0.236089 0.585131 -0.395246
-0.238034 0.587068 -0.395207
-0.228854 0.569132 -0.391722
-0.232749 0.577129 -0.394086
-0.238729 0.587695 -0.396793
-0.231320 0.570231 -0.392796
-0.229180 0.568985 -0.393388
-0.233533 0.576996 -0.394733
-0.236185 0.583202 -0.396584
-0.237763 0.586580 -0.396381
-0.244700 0.599047 -0.400426
-0.248359 0.608754 -0.403443
-0.240081 0.592620 -0.398971
-0.246678 0.607566 -0.401791
-0.246751 0.605242 -0.401589
-0.247904 0.608339 -0.401479
-0.245458 0.601798 -0.400034
-0.243485 0.599086 -0.399647
-0.242077 0.593176 -0.397995
-0.249564 0.612406 -0.404256
-0.252518 0.622818 -0.407409
-0.252726 0.621760 -0.407157
-0.251886 0.619929 -0.406094
-0.251481 0.615946 -0.405183
-0.251174 0.616509 -0.403872
-0.251406 0.618281 -0.405359
-0.252032 0.619595 -0.405354
-0.251295 0.617342 -0.404846
-0.251486 0.617887 -0.405333
-0.251069 0.616724 -0.404614
-0.033967 0.183332 -0.070929
-0.036554 0.181279 -0.075432
-0.026376 0.227265 -0.084055
-0.028368 0.220174 -0.083069
-0.038456 0.184092 -0.072170
-0.030979 0.216883 -0.084763
-0.032347 0.228241 -0.087703
-0.029691 0.217175 -0.081522
-0.030571 0.208423 -0.079898
-0.037808 0.190947 -0.077794
-0.034175 0.210996 -0.082368
-0.039738 0.188355 -0.077561
-0.028874 0.211258 -0.080244
-0.037460 0.189383 -0.076313
-0.035299 0.206604 -0.079876
-0.037416 0.193004 -0.075015
-0.039211 0.185369 -0.073708
-0.029889 0.207295 -0.082977
-0.039825 0.183161 -0.075169
-0.032508 0.220307 -0.079997
-0.031635 0.209457 -0.079703
-0.037553 0.198634 -0.076457
-0.011686 0.273475 -0.098860
-0.021725 0.255785 -0.091608
-0.021271 0.249050 -0.086135
-0.018280 0.252983 -0.095527
-0.024909 0.233373 -0.091762
-0.018334 0.267015 -0.098172
-0.018513 0.250795 -0.090400
-0.022261 0.254041 -0.093251
-0.012167 0.281287 -0.094439
-0.014184 0.279298 -0.098314
-0.021800 0.252871 -0.091393
-0.021168 0.251522 -0.093905
-0.020836 0.266476 -0.099503
-0.021652 0.245496 -0.088264
-0.014137 0.283801 -0.097508
-0.018496 0.267225 -0.094705
-0.025584 0.236649 -0.089161
-0.012820 0.280588 -0.094373
-0.022234 0.240544 -0.092105
-0.015477 0.265667 -0.097056
-0.021874 0.253149 -0.091297
-0.028286 0.235545 -0.087186
-0.015277 0.339639 -0.103842
-0.014642 0.302579 -0.099118
-0.013338 0.318735 -0.103236
-0.015728 0.332034 -0.103658
-0.015943 0.315193 -0.102569
-0.015591 0.333993 -0.103644
-0.015262 0.311745 -0.100711
-0.021275 0.346336 -0.104895
-0.014679 0.335524 -0.105304
-0.014928 0.329016 -0.105582
-0.015400 0.293235 -0.099447
-0.014524 0.310079 -0.098932
-0.015845 0.344218 -0.104816
-0.020492 0.339132 -0.103619
-0.017372 0.336827 -0.103667
-0.014880 0.298495 -0.100850
-0.016077 0.313290 -0.099631
-0.012749 0.313179 -0.101133
-0.013814 0.291431 -0.099301
-0.012172 0.335176 -0.108053
-0.016422 0.345518 -0.104560
-0.016257 0.357178 -0.104676
-0.018988 0.379502 -0.115754
-0.019239 0.380562 -0.115006
-0.018171 0.382094 -0.114635
-0.017948 0.352698 -0.106811
-0.021071 0.359602 -0.108413
-0.017054 0.375456 -0.112143
-0.017573 0.351667 -0.106733
-0.018076 0.374587 -0.111923
-0.018041 0.375688 -0.112431
-0.017074 0.351002 -0.104341
-0.017488 0.379218 -0.114144
-0.015372 0.431818 -0.128923
-0.016232 0.411013 -0.122389
-0.015725 0.407773 -0.120965
-0.014923 0.406684 -0.124330
-0.013016 0.437602 -0.129522
-0.012434 0.431542 -0.129742
-0.014372 0.441955 -0.133274
-0.018338 0.385604 -0.115359
-0.017797 0.396722 -0.119017
-0.018063 0.438199 -0.127205
-0.013125 0.439566 -0.127487
-0.016800 0.393028 -0.116885
-0.012875 0.415602 -0.124216
-0.017061 0.391553 -0.122668
-0.014444 0.417594 -0.120497
-0.016416 0.385768 -0.118267
-0.016274 0.437296 -0.128659
-0.013354 0.426798 -0.125175
-0.012958 0.417461 -0.121726
-0.005420 0.463500 -0.140946
-0.003717 0.471585 -0.144068
-0.010663 0.456626 -0.134093
-0.006320 0.468777 -0.142491
-0.010971 0.461569 -0.139176
-0.011209 0.470244 -0.142889
-0.012227 0.458231 -0.142627
-0.005785 0.462247 -0.138063
-0.008198 0.472112 -0.144894
-0.006745 0.452920 -0.136216
-0.004510 0.492483 -0.146962
-0.006797 0.478192 -0.148244
-0.002247 0.484287 -0.144269
-0.007300 0.493341 -0.150236
-0.004473 0.492937 -0.149477
0.000687 0.491229 -0.149674
-0.003354 0.486526 -0.146641
-0.003655 0.495990 -0.145921
-0.008656 0.492233 -0.149708
-0.004389 0.478619 -0.145890
0.001334 0.506036 -0.155559
-0.003330 0.502453 -0.154978
0.000014 0.507921 -0.160274
-0.001071 0.508710 -0.159071
-0.001631 0.511298 -0.161908
-0.004073 0.503998 -0.151806
-0.002596 0.508568 -0.158542
-0.000984 0.512194 -0.162960
0.001883 0.510824 -0.163940
-0.003028 0.501733 -0.154501
0.001469 0.523453 -0.170080
0.002944 0.523440 -0.169255
0.000198 0.517425 -0.166940
-0.002844 0.523144 -0.167230
0.000910 0.522966 -0.166492
0.001868 0.525211 -0.166770
-0.000121 0.526457 -0.169416
0.001793 0.521612 -0.163940
0.003606 0.527611 -0.168814
0.000095 0.521668 -0.163589
-0.002414 0.550819 -0.172783
0.000134 0.538661 -0.173113
-0.002152 0.552443 -0.174349
0.003765 0.529878 -0.170576
0.000075 0.536206 -0.171723
-0.000425 0.542880 -0.176560
0.000607 0.545043 -0.172770
0.000156 0.551507 -0.177463
0.001885 0.537226 -0.174385
0.002089 0.543608 -0.171140
-0.005607 0.569489 -0.178231
-0.005592 0.561072 -0.179128
-0.007401 0.566595 -0.180402
-0.003762 0.557713 -0.176199
-0.006850 0.561543 -0.179632
-0.004106 0.557661 -0.176966
-0.007367 0.564550 -0.182548
-0.003031 0.560517 -0.175643
-0.008033 0.571406 -0.182173
-0.005678 0.559560 -0.179983
-0.005093 0.589622 -0.196149
-0.004530 0.586675 -0.196885
-0.005972 0.590464 -0.195597
-0.007967 0.575679 -0.181272
-0.006475 0.573328 -0.183046
-0.009183 0.575963 -0.186210
-0.008683 0.573532 -0.183282
-0.006203 0.581132 -0.191852
-0.002365 0.587301 -0.193073
-0.005042 0.584879 -0.191814
-0.002109 0.603321 -0.201327
-0.000204 0.596551 -0.199696
-0.001649 0.596583 -0.198778
-0.002254 0.599359 -0.201886
0.001503 0.605081 -0.205921
-0.001025 0.605254 -0.202813
0.002095 0.602640 -0.205322
-0.001500 0.599676 -0.201673
0.004662 0.605288 -0.205052
-0.002862 0.597920 -0.199116
0.003059 0.615004 -0.206144
0.006834 0.618052 -0.210600
0.008580 0.620951 -0.211976
0.007201 0.618658 -0.212335
0.005528 0.615314 -0.209093
0.006635 0.614059 -0.210464
0.008931 0.622198 -0.212203
0.006585 0.620971 -0.211505
0.004902 0.614029 -0.208020
0.004596 0.614985 -0.208258
0.011865 0.626303 -0.215671
0.012947 0.625078 -0.212714
0.013880 0.629249 -0.215711
0.011496 0.625014 -0.214788
0.008239 0.626354 -0.216681
0.012425 0.632994 -0.219158
0.012717 0.622749 -0.213617
0.010518 0.621924 -0.214954
0.007389 0.626663 -0.213209
0.009967 0.625753 -0.214096
0.018445 0.642974 -0.223044
0.011694 0.635480 -0.221649
0.015053 0.639927 -0.222364
0.018497 0.645354 -0.225024
0.015365 0.644804 -0.222460
0.015466 0.641876 -0.224064
0.017337 0.647984 -0.225823
0.015315 0.642487 -0.224202
0.018383 0.641575 -0.223815
0.020055 0.643566 -0.223083
0.020504 0.649232 -0.226440
0.021284 0.661363 -0.228424
0.022324 0.657338 -0.230293
0.018789 0.652365 -0.228291
0.019589 0.653267 -0.225250
0.018315 0.648864 -0.228462
0.022112 0.661417 -0.226528
0.021759 0.657368 -0.229400
0.019595 0.651371 -0.225474
0.019571 0.656441 -0.229523
0.023367 0.665535 -0.231520
0.023433 0.666103 -0.231732
0.026730 0.678186 -0.240545
0.025509 0.674788 -0.236762
0.026344 0.677960 -0.237001
0.024594 0.671477 -0.236567
0.025603 0.675149 -0.238459
0.024380 0.668773 -0.234178
0.024588 0.673258 -0.233959
0.024409 0.668792 -0.232703
0.026368 0.681983 -0.239114
0.026961 0.685109 -0.239426
0.028609 0.699268 -0.244072
0.026624 0.688900 -0.242233
0.027933 0.695112 -0.244154
0.027682 0.688172 -0.243930
0.027100 0.681833 -0.239543
0.026240 0.695914 -0.245205
0.028870 0.700254 -0.245166
0.025417 0.685166 -0.242295
0.025651 0.711299 -0.248396
0.027683 0.716186 -0.252265
0.025173 0.721745 -0.251350
0.022394 0.720971 -0.254010
0.028189 0.705323 -0.246046
0.025939 0.719940 -0.250064
0.026254 0.704700 -0.248105
0.029471 0.704597 -0.245935
0.026480 0.709905 -0.248403
0.029281 0.708190 -0.247806
0.024911 0.730652 -0.256633
0.025209 0.742309 -0.262601
0.024718 0.729926 -0.257646
0.025616 0.729867 -0.255752
0.026360 0.734766 -0.257656
0.025833 0.741292 -0.261348
0.025704 0.741203 -0.261710
0.024232 0.729408 -0.256849
0.026740 0.732397 -0.256843
0.024686 0.740963 -0.262660
0.027419 0.744662 -0.262668
0.029447 0.761965 -0.269071
0.027275 0.757422 -0.266254
0.028542 0.744258 -0.264062
0.026540 0.752122 -0.265425
0.028533 0.751205 -0.264780
0.027679 0.748693 -0.264906
0.025365 0.745704 -0.263052
0.028007 0.753782 -0.265850
0.027560 0.751057 -0.265009
0.026065 0.777355 -0.275204
0.027453 0.768751 -0.271527
0.027857 0.771293 -0.270354
0.027118 0.762643 -0.271353
0.028747 0.762686 -0.270546
0.026813 0.771006 -0.270172
0.028933 0.764466 -0.270326
0.027761 0.763741 -0.270274
0.029912 0.769641 -0.272473
0.028376 0.769133 -0.272423
0.025629 0.783122 -0.277947
0.025047 0.784018 -0.279608
0.023662 0.789332 -0.280705
0.024396 0.787709 -0.280201
0.025223 0.784397 -0.278778
0.022821 0.788572 -0.278671
0.022957 0.782361 -0.276901
0.025357 0.781901 -0.276676
0.024502 0.790287 -0.281543
0.026726 0.785058 -0.279203
0.022574 0.794896 -0.283028
0.023690 0.806170 -0.288104
0.022788 0.803988 -0.288271
0.022352 0.801097 -0.284813
0.023560 0.796335 -0.283599
0.022873 0.797663 -0.286519
0.023400 0.799194 -0.285626
0.023914 0.803025 -0.287927
0.023252 0.798298 -0.285099
0.023028 0.807167 -0.289010
0.015802 0.817153 -0.297298
0.021992 0.810103 -0.291113
0.022446 0.809340 -0.291628
0.020556 0.811189 -0.291957
0.016808 0.815347 -0.295673
0.019773 0.813376 -0.294221
0.022571 0.809115 -0.290439
0.018642 0.815057 -0.295357
0.021744 0.810965 -0.293195
0.020167 0.812602 -0.294341
0.015362 0.825424 -0.305849
0.014274 0.828764 -0.310949
0.015043 0.829126 -0.309451
0.016826 0.820732 -0.298917
0.014744 0.821326 -0.301780
0.016271 0.825464 -0.308511
0.014718 0.830064 -0.312097
0.014077 0.824222 -0.304095
0.014073 0.822324 -0.300683
0.016494 0.820375 -0.299652
0.014395 0.834489 -0.319511
0.012956 0.834159 -0.318108
0.013432 0.839571 -0.320398
0.015246 0.831042 -0.315002
0.014575 0.831556 -0.313586
0.012721 0.838437 -0.322331
0.013317 0.834744 -0.318608
0.013828 0.836356 -0.319030
0.014451 0.837704 -0.320807
0.015303 0.831891 -0.314451
0.012052 0.852049 -0.333697
0.013134 0.850860 -0.332910
0.013404 0.842150 -0.325224
0.014266 0.849990 -0.332186
0.013913 0.844204 -0.326041
0.013703 0.843017 -0.325521
0.012848 0.853157 -0.334279
0.013891 0.851871 -0.334050
0.012677 0.846956 -0.330852
0.013209 0.844243 -0.324427
0.014485 0.852886 -0.337100
0.014733 0.852963 -0.336410
0.013545 0.862369 -0.345452
0.013780 0.858034 -0.339631
0.015729 0.861333 -0.343204
0.014186 0.853116 -0.337193
0.013099 0.853990 -0.337582
0.016243 0.862206 -0.345182
0.015135 0.860400 -0.343909
0.015587 0.862964 -0.345986
0.016037 0.870842 -0.353607
0.015128 0.866905 -0.349031
0.014381 0.865827 -0.350029
0.016107 0.866028 -0.351955
0.014791 0.871991 -0.354087
0.014414 0.866837 -0.352441
0.015251 0.865919 -0.349617
0.017005 0.871533 -0.353878
0.014118 0.866621 -0.349068
0.016140 0.871101 -0.353202
0.018623 0.883047 -0.364677
0.016057 0.876975 -0.358410
0.015801 0.874547 -0.360387
0.018023 0.881852 -0.362348
0.018409 0.882942 -0.363693
0.017187 0.881210 -0.363217
0.016716 0.876995 -0.361580
0.017738 0.880967 -0.363473
0.018313 0.881416 -0.364426
0.016882 0.875881 -0.358916
0.020017 0.887704 -0.365185
0.021632 0.887502 -0.366057
0.019478 0.887292 -0.364319
0.019672 0.887948 -0.365256
0.021336 0.887852 -0.365510
0.020668 0.887111 -0.365525
0.018629 0.885987 -0.365645
0.019359 0.884112 -0.365112
0.020077 0.887758 -0.365520
0.018712 0.884577 -0.365327
0.019872 0.894286 -0.368869
0.020430 0.901871 -0.373218
0.018148 0.903795 -0.373259
0.019213 0.903137 -0.375670
0.021116 0.893097 -0.367028
0.019760 0.898298 -0.372822
0.019823 0.896250 -0.370286
0.021116 0.888903 -0.367101
0.019944 0.889746 -0.366853
0.019941 0.903327 -0.372793
0.021956 0.923713 -0.390922
0.019464 0.915131 -0.382022
0.021489 0.917243 -0.382703
0.020897 0.913617 -0.380092
0.020521 0.920498 -0.384924
0.020105 0.915770 -0.382880
0.021682 0.915272 -0.384362
0.018956 0.908310 -0.379049
0.020195 0.909627 -0.378161
0.022300 0.914472 -0.382917
0.020120 0.927996 -0.392210
0.020848 0.927564 -0.392852
0.021183 0.929702 -0.398202
0.020822 0.934613 -0.400687
0.020125 0.935588 -0.402828
0.020808 0.934643 -0.403028
0.020704 0.931319 -0.397251
0.020647 0.929163 -0.394987
0.019878 0.931760 -0.398662
0.021551 0.926881 -0.392062
0.019580 0.939054 -0.405652
0.019554 0.939198 -0.406405
0.019687 0.938535 -0.403101
0.019328 0.941682 -0.405614
0.021238 0.940363 -0.406402
0.020904 0.937646 -0.405263
0.019962 0.939133 -0.405321
0.020489 0.939593 -0.404987
0.020071 0.938985 -0.405553
0.020006 0.939560 -0.405297
0.016592 0.950044 -0.414071
0.019987 0.948019 -0.411116
0.015338 0.949497 -0.416464
0.014040 0.953064 -0.419992
0.020788 0.944907 -0.410565
0.013266 0.955590 -0.422179
0.010753 0.958515 -0.426444
0.017345 0.947575 -0.412238
0.011984 0.960283 -0.427253
0.019213 0.946920 -0.411239
0.007142 0.967672 -0.434459
0.005657 0.976686 -0.438619
0.004785 0.977261 -0.438553
0.008494 0.962383 -0.430277
0.006255 0.974223 -0.437903
0.009141 0.967035 -0.432678
0.008681 0.967602 -0.433262
0.007412 0.968761 -0.435962
0.008836 0.964077 -0.430289
0.005321 0.973692 -0.436589
0.002680 0.985554 -0.452842
0.005069 0.977681 -0.440477
0.004009 0.980779 -0.445223
0.003327 0.982886 -0.448931
0.004722 0.978947 -0.440359
0.003249 0.984192 -0.451065
0.005533 0.977988 -0.440425
0.001503 0.988313 -0.455958
0.004467 0.979196 -0.442743
0.003983 0.980660 -0.446964
0.006347 1.004162 -0.465278
0.003739 0.998002 -0.463355
0.004749 1.002763 -0.464554
0.005405 1.002944 -0.464326
0.007744 1.009858 -0.466299
0.004337 1.001684 -0.463617
0.001772 0.991308 -0.459783
0.003445 0.996365 -0.463173
0.004299 0.998818 -0.464120
0.002934 0.994991 -0.462144
0.017448 1.020259 -0.471878
0.015193 1.018473 -0.469833
0.014228 1.016979 -0.470376
0.014492 1.017094 -0.469556
0.015279 1.018321 -0.470357
0.014788 1.019129 -0.470031
0.016819 1.020771 -0.471599
0.014254 1.017458 -0.469811
0.011548 1.013984 -0.468261
0.009190 1.011814 -0.466646
0.026584 1.027637 -0.471560
0.026983 1.028456 -0.471107
0.022046 1.023994 -0.472257
0.025997 1.027539 -0.471201
0.020619 1.024089 -0.472470
0.019296 1.022871 -0.471302
0.028076 1.030172 -0.471339
0.024088 1.026432 -0.472397
0.028194 1.029988 -0.471216
0.019340 1.022100 -0.471707
0.039672 1.046867 -0.473616
0.045442 1.056506 -0.476685
0.035444 1.040503 -0.472427
0.042108 1.050844 -0.475270
0.036032 1.040817 -0.472616
0.035498 1.040189 -0.472522
0.031211 1.032437 -0.471150
0.043492 1.053689 -0.475615
0.038957 1.045955 -0.474065
0.045899 1.057202 -0.476418
0.031586 1.073756 -0.482683
0.037086 1.071774 -0.481898
0.036585 1.071907 -0.481315
0.041345 1.069946 -0.480847
0.039149 1.070620 -0.481176
0.038763 1.071304 -0.480845
0.048154 1.067324 -0.479638
0.048525 1.066836 -0.479368
0.050723 1.066231 -0.478260
0.049486 1.066691 -0.479223
0.056796 1.067407 -0.479905
0.056245 1.067428 -0.479945
0.063141 1.069277 -0.482107
0.063013 1.069583 -0.481777
0.066147 1.070258 -0.482919
0.056925 1.067747 -0.480076
0.054115 1.066863 -0.479568
0.053812 1.066388 -0.479511
0.063178 1.069996 -0.481852
0.060236 1.068955 -0.481409
-0.016235 0.584098 -0.183697
-0.012418 0.582761 -0.186367
-0.014295 0.590054 -0.191057
-0.007664 0.573939 -0.181271
-0.010739 0.580590 -0.185342
-0.011889 0.578731 -0.182081
-0.005339 0.573413 -0.181939
-0.014191 0.578354 -0.187776
-0.009054 0.578545 -0.182766
-0.016931 0.589514 -0.188608
-0.015252 0.594029 -0.191570
-0.021767 0.604008 -0.196996
-0.020310 0.598458 -0.195335
-0.022729 0.605905 -0.199175
-0.024194 0.598865 -0.192747
-0.022693 0.604289 -0.197013
-0.020745 0.596620 -0.192245
-0.021373 0.594187 -0.193309
-0.023047 0.603050 -0.196895
-0.019578 0.604600 -0.197572
-0.027453 0.613904 -0.202533
-0.021110 0.607967 -0.198909
-0.031387 0.619101 -0.205672
-0.027962 0.614516 -0.200245
-0.028741 0.616758 -0.203416
-0.022099 0.609059 -0.200979
-0.026749 0.610647 -0.202047
-0.028975 0.610381 -0.200192
-0.026049 0.609854 -0.202398
-0.030461 0.620556 -0.205977
-0.034097 0.630124 -0.210988
-0.033987 0.623940 -0.208596
-0.033134 0.623717 -0.208093
-0.033763 0.628612 -0.207428
-0.033857 0.624153 -0.208296
-0.038372 0.631377 -0.210139
-0.035432 0.630868 -0.208896
-0.036338 0.632602 -0.207550
-0.036186 0.628893 -0.209781
-0.032534 0.628946 -0.206149
-0.038044 0.636889 -0.212343
-0.037384 0.637298 -0.210945
-0.038042 0.636443 -0.209137
-0.041616 0.637305 -0.216811
-0.040567 0.639002 -0.214753
-0.038480 0.638841 -0.216662
-0.038766 0.639717 -0.214304
-0.041658 0.641199 -0.217817
-0.044172 0.640203 -0.215723
-0.037318 0.635213 -0.211010
-0.051989 0.651173 -0.227411
-0.047293 0.648208 -0.224539
-0.051346 0.648764 -0.228360
-0.051701 0.651557 -0.225428
-0.052597 0.650523 -0.227226
-0.051096 0.649814 -0.224501
-0.047492 0.646001 -0.222998
-0.051705 0.652468 -0.230724
-0.047025 0.645099 -0.223870
-0.045282 0.645331 -0.223431
-0.055318 0.653296 -0.235324
-0.054051 0.654254 -0.231312
-0.053984 0.651623 -0.232220
-0.054975 0.654499 -0.235958
-0.053348 0.654135 -0.229002
-0.053773 0.652140 -0.234097
-0.053025 0.654205 -0.236253
-0.053860 0.651480 -0.234234
-0.052050 0.652738 -0.234214
-0.054203 0.652560 -0.231822
-0.016667 0.392146 -0.119750
-0.025510 0.405652 -0.124758
-0.020303 0.404051 -0.121337
-0.023141 0.383650 -0.116197
-0.024794 0.399764 -0.117436
-0.021342 0.393944 -0.117845
-0.017667 0.417760 -0.126348
-0.021837 0.413731 -0.122111
-0.025092 0.403007 -0.120006
-0.027044 0.407643 -0.122983
-0.021392 0.395629 -0.117980
-0.023633 0.425098 -0.130562
-0.030967 0.439295 -0.129773
-0.032050 0.437845 -0.131066
-0.033499 0.440476 -0.129116
-0.032997 0.441779 -0.128281
-0.028083 0.430625 -0.128971
-0.031696 0.438095 -0.129216
-0.035862 0.437461 -0.130154
-0.032085 0.439243 -0.130907
-0.031969 0.441280 -0.132224
-0.040132 0.449837 -0.130517
-0.037192 0.445796 -0.129942
-0.033395 0.445022 -0.127233
-0.042134 0.449731 -0.130493
-0.038708 0.443234 -0.128581
-0.041369 0.454028 -0.130269
-0.039694 0.449480 -0.130647
-0.039768 0.449624 -0.129988
-0.037638 0.446773 -0.129799
-0.032656 0.445487 -0.128964
-0.044381 0.453667 -0.130833
-0.042741 0.453716 -0.131198
-0.047330 0.453989 -0.135679
-0.048262 0.455611 -0.136124
-0.049726 0.453901 -0.137382
-0.045229 0.453585 -0.133065
-0.043510 0.455142 -0.133274
-0.045132 0.453250 -0.134815
-0.045199 0.451930 -0.134764
-0.051299 0.453485 -0.139386
-0.055648 0.452994 -0.141756
-0.053295 0.454096 -0.140532
-0.060294 0.454028 -0.143897
-0.057731 0.453241 -0.143164
-0.054467 0.453667 -0.141303
-0.058311 0.452601 -0.143425
-0.057186 0.451848 -0.142080
-0.057761 0.452950 -0.142574
-0.059695 0.453432 -0.142473
-0.052554 0.453860 -0.138979
-0.019706 0.422618 -0.130848
-0.025753 0.449215 -0.135240
-0.025114 0.443808 -0.132639
-0.029148 0.443063 -0.132277
-0.023940 0.440628 -0.132144
-0.024575 0.442361 -0.137797
-0.022324 0.421248 -0.123339
-0.024415 0.423987 -0.126779
-0.025026 0.444109 -0.132760
-0.023678 0.429628 -0.129552
-0.025919 0.451072 -0.133608
-0.031784 0.481320 -0.141418
-0.025848 0.453215 -0.135246
-0.022865 0.455761 -0.132881
-0.030721 0.472536 -0.137594
-0.027168 0.464325 -0.136374
-0.030447 0.474595 -0.138481
-0.029693 0.475577 -0.145034
-0.033930 0.483168 -0.144055
-0.034438 0.474702 -0.140171
-0.023392 0.566382 -0.086052
-0.025567 0.498932 -0.133997
-0.027629 0.528776 -0.120524
-0.022833 0.561387 -0.094441
-0.030717 0.495730 -0.140433
-0.026870 0.522368 -0.118786
-0.025241 0.545226 -0.109327
-0.026953 0.521443 -0.116360
-0.029867 0.522355 -0.120372
-0.025264 0.526843 -0.115741
-0.024192 0.542539 -0.104890
-0.030158 0.498044 -0.132011
-0.026696 0.565284 -0.090461
-0.027427 0.555154 -0.099934
-0.030693 0.533613 -0.112643
-0.021522 0.563896 -0.094626
-0.024861 0.542630 -0.106646
-0.019901 0.563970 -0.093338
-0.027005 0.557063 -0.093858
-0.027094 0.510630 -0.128797
-0.026134 0.536953 -0.110290
-0.024045 0.554711 -0.096854
-0.022113 0.558443 -0.097202
-0.023348 0.552633 -0.099987
-0.021793 0.548891 -0.099413
-0.026432 0.519294 -0.117900
-0.029390 0.499105 -0.135363
-0.015455 0.582288 -0.081550
-0.014535 0.583239 -0.079917
-0.018017 0.576217 -0.082862
-0.017355 0.577266 -0.089006
-0.018801 0.580708 -0.085442
-0.022516 0.571096 -0.085187
-0.014466 0.579687 -0.081070
-0.011881 0.586561 -0.077695
-0.021104 0.574625 -0.083408
-0.011459 0.587450 -0.080876
-0.007000 0.602306 -0.066869
-0.003851 0.606320 -0.061717
-0.013240 0.589984 -0.073291
-0.001228 0.601199 -0.063509
-0.005436 0.598024 -0.066698
-0.007104 0.601176 -0.064503
-0.011588 0.589195 -0.076951
-0.007813 0.597305 -0.068550
-0.005650 0.597750 -0.066748
-0.011864 0.592687 -0.073926
-0.000526 0.609608 -0.060762
0.000105 0.609806 -0.059544
0.002011 0.610510 -0.059458
0.008329 0.618502 -0.054656
0.013076 0.624626 -0.049212
0.016623 0.625859 -0.051609
0.009371 0.619707 -0.052334
0.014216 0.619503 -0.051501
0.000358 0.608090 -0.062406
0.014045 0.627210 -0.048259
0.033789 0.637664 -0.058662
0.036681 0.642961 -0.059048
0.022164 0.631958 -0.053488
0.023577 0.635488 -0.052148
0.025970 0.636016 -0.052365
0.038226 0.645571 -0.061546
0.018067 0.628214 -0.049457
0.025539 0.633916 -0.054396
0.038142 0.643961 -0.059990
0.038602 0.644302 -0.059116
0.041023 0.648331 -0.056919
0.045177 0.651358 -0.052809
0.042893 0.649723 -0.054721
0.043881 0.648901 -0.055558
0.043316 0.648895 -0.054907
0.041507 0.648848 -0.058123
0.043826 0.648484 -0.058046
0.045699 0.651234 -0.052724
0.042212 0.648900 -0.055304
0.044336 0.648870 -0.054305
0.026802 0.633529 -0.047332
0.025488 0.632824 -0.047058
0.023468 0.635034 -0.046023
0.028062 0.637177 -0.046071
0.016500 0.626695 -0.049832
0.027729 0.636732 -0.046531
0.023739 0.629580 -0.050181
0.020874 0.628940 -0.046203
0.021597 0.629625 -0.047740
0.024535 0.632666 -0.047507
0.044740 0.644638 -0.040191
0.034400 0.637811 -0.044616
0.034435 0.636475 -0.047503
0.032234 0.634899 -0.044994
0.032781 0.640923 -0.046786
0.030146 0.639648 -0.046138
0.038297 0.640626 -0.043778
0.040012 0.642616 -0.042368
0.042901 0.645892 -0.043676
0.031133 0.637212 -0.044524
-0.002070 0.608178 -0.059895
-0.001388 0.613019 -0.060525
0.004978 0.616811 -0.056778
-0.000902 0.606894 -0.058712
0.003103 0.617803 -0.055667
-0.000337 0.616350 -0.057570
0.003405 0.618289 -0.060216
0.003320 0.617707 -0.058950
0.001893 0.614257 -0.059577
0.002597 0.615723 -0.059032
0.016334 0.633175 -0.061352
0.013469 0.632425 -0.061452
0.018732 0.635433 -0.061639
0.007980 0.623996 -0.057630
0.009402 0.625949 -0.059265
0.008104 0.626861 -0.060212
0.005170 0.622144 -0.058846
0.018388 0.635341 -0.061310
0.010351 0.623004 -0.059906
0.010915 0.625554 -0.060030
0.015396 0.648198 -0.069846
0.017321 0.644931 -0.069424
0.013125 0.650890 -0.070460
0.020916 0.639690 -0.061978
0.014365 0.649575 -0.071485
0.014339 0.646731 -0.069729
0.017176 0.644416 -0.068505
0.014014 0.649226 -0.069733
0.018656 0.642851 -0.064366
0.014875 0.648407 -0.069971
-0.029847 0.492414 -0.148220
-0.031717 0.485681 -0.146598
-0.031379 0.490874 -0.146857
-0.035703 0.501234 -0.147458
-0.035869 0.497949 -0.146332
-0.034536 0.497302 -0.148436
-0.037819 0.490441 -0.145979
-0.032196 0.495902 -0.149700
-0.036607 0.484577 -0.141847
-0.033427 0.487938 -0.149561
-0.055824 0.531958 -0.154486
-0.050308 0.525718 -0.154065
-0.046108 0.511370 -0.150106
-0.049030 0.526022 -0.153353
-0.057784 0.534183 -0.153365
-0.044242 0.521746 -0.152923
-0.049037 0.521678 -0.153528
-0.038390 0.512176 -0.151937
-0.046359 0.512762 -0.148318
-0.040997 0.508041 -0.151115
-0.062994 0.534351 -0.154369
-0.072743 0.569463 -0.154067
-0.069817 0.579816 -0.158224
-0.069685 0.559809 -0.153743
-0.067932 0.567910 -0.159035
-0.063067 0.548864 -0.155675
-0.056582 0.541820 -0.155115
-0.069799 0.568495 -0.161761
-0.074422 0.580505 -0.158344
-0.060716 0.544692 -0.152871
-0.060553 0.546952 -0.153753
-0.066154 0.557882 -0.155722
-0.058575 0.537172 -0.153831
-0.064867 0.545620 -0.154151
-0.073674 0.611969 -0.148233
-0.072785 0.604136 -0.147503
-0.072233 0.591425 -0.153806
-0.077290 0.584412 -0.156390
-0.076073 0.602655 -0.150526
-0.074120 0.613673 -0.143555
-0.071501 0.597537 -0.154264
-0.074641 0.612434 -0.147114
-0.077205 0.583994 -0.157486
-0.078015 0.587075 -0.155547
-0.069695 0.646948 -0.140921
-0.073131 0.622842 -0.144591
-0.070239 0.638200 -0.139834
-0.073780 0.642815 -0.140224
-0.071087 0.642400 -0.140013
-0.070528 0.649849 -0.139368
-0.074003 0.633642 -0.139958
-0.073671 0.632039 -0.144576
-0.074848 0.633132 -0.141514
-0.071473 0.634569 -0.138237
-0.072330 0.662727 -0.139531
-0.074964 0.651717 -0.136779
-0.077496 0.674351 -0.132569
-0.074860 0.675208 -0.134666
-0.080782 0.695229 -0.130748
-0.075823 0.673324 -0.134667
-0.078243 0.680043 -0.130959
-0.075231 0.670945 -0.135247
-0.075761 0.672286 -0.132257
-0.079204 0.688478 -0.132466
-0.074050 0.672281 -0.134869
-0.078066 0.677519 -0.133038
-0.082123 0.688347 -0.133679
-0.072788 0.662482 -0.136306
-0.084809 0.718497 -0.133841
-0.088757 0.722705 -0.133907
-0.091335 0.729835 -0.138787
-0.089474 0.723245 -0.132818
-0.093468 0.732853 -0.135439
-0.090763 0.725934 -0.134704
-0.099453 0.742907 -0.142698
-0.087167 0.715057 -0.125937
-0.082661 0.713357 -0.129068
-0.091427 0.728356 -0.132326
-0.099355 0.750935 -0.143129
-0.110180 0.766945 -0.154117
-0.104641 0.762081 -0.152119
-0.099066 0.745277 -0.141787
-0.101800 0.754489 -0.145054
-0.101621 0.748979 -0.146138
-0.101716 0.748321 -0.145406
-0.103906 0.755996 -0.147416
-0.099984 0.746274 -0.141636
-0.102707 0.752251 -0.150285
-0.114187 0.778278 -0.163189
-0.111439 0.770394 -0.157366
-0.113508 0.776259 -0.164688
-0.109202 0.769462 -0.158326
-0.113599 0.774498 -0.161205
-0.112549 0.772955 -0.160914
-0.114493 0.773087 -0.159066
-0.114558 0.778285 -0.163227
-0.111534 0.769617 -0.157442
-0.115373 0.780490 -0.163181
-0.112410 0.794308 -0.179100
-0.113627 0.780058 -0.164387
-0.110779 0.800254 -0.187589
-0.112227 0.792411 -0.176825
-0.113682 0.789477 -0.174831
-0.113498 0.784618 -0.167982
-0.114200 0.784998 -0.174520
-0.110538 0.800062 -0.183838
-0.112586 0.794889 -0.181007
-0.111147 0.803299 -0.190326
-0.112271 0.806914 -0.195724
-0.115655 0.812579 -0.196610
-0.111256 0.807031 -0.195160
-0.115567 0.810173 -0.195682
-0.114549 0.812265 -0.197869
-0.116638 0.815387 -0.200510
-0.115863 0.812802 -0.196722
-0.117651 0.815724 -0.199525
-0.114624 0.808125 -0.194721
-0.117537 0.813150 -0.197898
-0.069060 0.672295 -0.123597
-0.066659 0.685555 -0.125222
-0.066470 0.677894 -0.122578
-0.070429 0.651709 -0.138560
-0.065094 0.673878 -0.125859
-0.066215 0.666538 -0.132279
-0.068067 0.677012 -0.127143
-0.070180 0.652545 -0.137700
-0.069286 0.658830 -0.136851
-0.068690 0.664577 -0.132408
-0.059368 0.702779 -0.116107
-0.063822 0.695088 -0.117052
-0.060653 0.704879 -0.122243
-0.062547 0.691390 -0.119054
-0.059420 0.704211 -0.118511
-0.068650 0.691102 -0.120162
-0.064402 0.684708 -0.124393
-0.063049 0.698189 -0.123500
-0.067863 0.689056 -0.125626
-0.061195 0.704757 -0.118177
-0.040667 0.749656 -0.116295
-0.056058 0.720924 -0.117199
-0.044611 0.746565 -0.121786
-0.054875 0.721196 -0.117479
-0.051107 0.736291 -0.117867
-0.046165 0.734979 -0.115586
-0.057980 0.721050 -0.114284
-0.043044 0.745947 -0.119936
-0.046403 0.738684 -0.117187
-0.046761 0.745540 -0.116249
-0.033702 0.756758 -0.117829
-0.035030 0.758079 -0.119031
-0.034900 0.755259 -0.118031
-0.040342 0.753500 -0.115943
-0.039977 0.752781 -0.117568
-0.038648 0.754588 -0.119353
-0.038232 0.754970 -0.119727
-0.038600 0.751422 -0.122104
-0.040107 0.755205 -0.120386
-0.038668 0.754220 -0.118152
-0.029391 0.760489 -0.116630
-0.028455 0.761433 -0.116252
-0.025359 0.762785 -0.115957
-0.034340 0.758779 -0.118572
-0.033009 0.759522 -0.118092
-0.033889 0.757607 -0.119919
-0.027074 0.760857 -0.118959
-0.032653 0.760470 -0.120444
-0.034732 0.758403 -0.119552
-0.033211 0.757933 -0.117828
-0.023911 0.766770 -0.114870
-0.025481 0.768033 -0.114943
-0.023140 0.767897 -0.112605
-0.022419 0.766997 -0.113300
-0.023843 0.766928 -0.114773
-0.022334 0.773054 -0.112821
-0.023389 0.765498 -0.113363
-0.021693 0.774861 -0.111696
-0.023205 0.769760 -0.113442
-0.021876 0.772388 -0.112597
-0.020809 0.780032 -0.112801
-0.021439 0.779497 -0.111474
-0.019384 0.781660 -0.114115
-0.016516 0.785046 -0.116475
-0.019520 0.780208 -0.113120
-0.019931 0.776467 -0.112720
-0.019323 0.780660 -0.113344
-0.016862 0.782551 -0.115425
-0.016739 0.785530 -0.116261
-0.020098 0.779166 -0.113006
-0.058465 0.722278 -0.116548
-0.053303 0.722224 -0.118614
-0.056529 0.717280 -0.117184
-0.055698 0.734695 -0.120349
-0.055548 0.718105 -0.117337
-0.051971 0.733235 -0.116446
-0.054959 0.723998 -0.113041
-0.052061 0.739054 -0.113934
-0.055096 0.728373 -0.115380
-0.055282 0.720489 -0.119107
-0.052905 0.746550 -0.120156
-0.048012 0.762761 -0.121795
-0.055687 0.748181 -0.118969
-0.051001 0.767434 -0.127828
-0.053373 0.755401 -0.121222
-0.047985 0.766452 -0.127717
-0.050429 0.747245 -0.120474
-0.048242 0.754835 -0.121699
-0.052500 0.758089 -0.127217
-0.054472 0.752885 -0.117108
-0.047889 0.769341 -0.131902
-0.048308 0.778931 -0.134867
-0.048476 0.774507 -0.136298
-0.051471 0.778491 -0.135144
-0.048232 0.774957 -0.139440
-0.047042 0.784429 -0.144246
-0.047519 0.774354 -0.139486
-0.047828 0.790484 -0.144638
-0.046822 0.781624 -0.146559
-0.043949 0.785457 -0.146139
-0.053078 0.794634 -0.156509
-0.056882 0.798144 -0.159453
-0.061095 0.799301 -0.160311
-0.062264 0.799504 -0.164074
-0.058654 0.797525 -0.159337
-0.064374 0.800681 -0.165914
-0.060033 0.796714 -0.161764
-0.063419 0.800783 -0.165372
-0.056600 0.800124 -0.161040
-0.051769 0.792227 -0.152271
-0.032018 0.023567 -0.007672
-0.025343 0.009380 -0.010279
-0.028331 0.025867 -0.016603
-0.025626 0.006018 -0.003658
-0.029291 0.021025 -0.010057
-0.020601 0.015793 -0.017351
-0.025831 0.020926 -0.016866
-0.025516 0.008992 -0.014525
-0.036890 0.033755 -0.010898
-0.032891 0.006879 -0.015606
-0.022668 0.020098 -0.016202
-0.026050 0.029671 -0.011795
-0.025246 0.013334 -0.017237
-0.030212 0.022150 -0.018529
-0.034078 0.030748 -0.024906
-0.026398 0.019198 -0.014352
-0.027120 0.004112 -0.018473
-0.030394 0.005087 -0.009704
-0.026454 0.014868 -0.007819
-0.034584 0.012430 -0.015224
-0.034481 0.035582 -0.019860
-0.024178 0.017131 -0.004782
-0.025522 0.007252 -0.015881
-0.028762 0.003232 -0.007498
-0.027155 0.037929 -0.014629
-0.025518 0.013935 -0.014061
-0.023643 0.011670 -0.013081
-0.028683 0.015084 -0.015936
-0.028719 0.025946 -0.022393
-0.023373 0.031115 -0.010168
-0.030254 0.025311 -0.007245
-0.031195 0.037373 -0.017758
-0.029095 0.035764 -0.016897
-0.021900 0.004194 -0.017716
-0.025397 0.022738 -0.016736
-0.034048 0.031973 -0.011539
-0.024586 0.011276 -0.005586
-0.022845 0.010925 -0.013315
-0.029527 0.039294 -0.025167
-0.027140 0.018951 -0.009917
-0.030839 0.028587 -0.015646
-0.025424 0.012723 -0.014624
-0.034897 0.032060 -0.008117
-0.019307 0.027526 -0.017368
-0.038486 0.042565 -0.022945
-0.040115 0.051288 -0.021764
-0.042027 0.058892 -0.028609
-0.030443 0.046198 -0.021491
-0.043930 0.063951 -0.030432
-0.035448 0.045245 -0.020503
-0.043850 0.049189 -0.022421
-0.039984 0.052719 -0.023548
-0.044633 0.059801 -0.024171
-0.040722 0.046882 -0.020177
-0.048127 0.068892 -0.037990
-0.048483 0.071784 -0.044932
-0.046782 0.068540 -0.038984
-0.051131 0.075798 -0.057572
-0.050499 0.072261 -0.050480
-0.046848 0.069103 -0.037088
-0.047013 0.069451 -0.040088
-0.048714 0.071990 -0.045809
-0.049025 0.074174 -0.053201
-0.050924 0.075714 -0.057185
-0.052195 0.080247 -0.090672
-0.051859 0.077912 -0.077429
-0.051998 0.078204 -0.072648
-0.051595 0.078577 -0.082903
-0.051820 0.078925 -0.083517
-0.051342 0.077755 -0.074276
-0.051965 0.077669 -0.068079
-0.051745 0.080166 -0.086721
-0.051721 0.078988 -0.077306
-0.052067 0.077598 -0.064372
-0.052246 0.080649 -0.093683
-0.053006 0.082277 -0.100090
-0.053242 0.082221 -0.098589
-0.052568 0.081510 -0.095874
-0.052232 0.080760 -0.093343
-0.053053 0.081379 -0.099047
-0.052187 0.081264 -0.097089
-0.052912 0.081722 -0.100010
-0.052371 0.080980 -0.094485
-0.052348 0.081128 -0.096012
-0.047304 0.060414 -0.026343
-0.040935 0.045609 -0.021748
-0.045132 0.061059 -0.021689
-0.030926 0.044482 -0.017164
-0.046921 0.053066 -0.016892
-0.038799 0.054894 -0.019639
-0.038344 0.044586 -0.009992
-0.055075 0.071846 -0.017923
-0.049077 0.047203 -0.021840
-0.035698 0.042906 -0.014585
-0.052413 0.072172 -0.023967
-0.053575 0.070743 -0.021750
-0.036696 0.060922 -0.022777
-0.029190 0.043590 -0.026077
-0.041245 0.047504 -0.015967
-0.050299 0.065321 -0.029994
-0.041992 0.041490 -0.010828
-0.049406 0.048638 -0.018422
-0.042806 0.054012 -0.023590
-0.049071 0.065725 -0.026264
-0.045817 0.055610 -0.018339
-0.049312 0.063762 -0.019871
-0.034019 0.055103 -0.017631
-0.030863 0.045401 -0.011141
-0.039318 0.050396 -0.018429
-0.037168 0.043428 -0.028547
-0.040996 0.053250 -0.020865
-0.040272 0.058646 -0.023226
-0.033254 0.056355 -0.021503
-0.040973 0.043682 -0.025217
-0.042403 0.054259 -0.018284
-0.041342 0.065067 -0.028027
-0.040483 0.045339 -0.020531
-0.046670 0.061238 -0.025288
-0.051799 0.075905 -0.029308
-0.065752 0.095465 -0.030653
-0.060078 0.088527 -0.026653
-0.060981 0.078153 -0.027764
-0.061112 0.096189 -0.024411
-0.059842 0.094561 -0.022635
-0.060232 0.074796 -0.021070
-0.060354 0.095528 -0.021590
-0.061024 0.095753 -0.019678
-0.057831 0.092014 -0.026320
-0.060898 0.083233 -0.025431
-0.054950 0.082542 -0.026796
-0.047916 0.081633 -0.024558
-0.055285 0.077761 -0.026189
-0.058822 0.090016 -0.025066
-0.051473 0.074838 -0.031377
-0.055422 0.077676 -0.024011
-0.074401 0.100132 -0.025984
-0.079201 0.096518 -0.019703
-0.073223 0.096895 -0.024329
-0.072328 0.097740 -0.019006
-0.068124 0.099163 -0.025226
-0.078173 0.096551 -0.021157
-0.074840 0.095691 -0.022036
-0.067403 0.098756 -0.022766
-0.063053 0.100508 -0.023896
-0.065026 0.099710 -0.021853
-0.082898 0.097690 -0.018731
-0.090686 0.093816 -0.017416
-0.093346 0.092823 -0.018416
-0.083700 0.097921 -0.019035
-0.082331 0.097215 -0.020192
-0.088817 0.096557 -0.018622
-0.093917 0.092602 -0.018804
-0.085026 0.097793 -0.019521
-0.097601 0.092486 -0.018466
-0.088176 0.093590 -0.019757
-0.114703 0.083086 -0.006249
-0.107624 0.087469 -0.011251
-0.110923 0.085158 -0.009061
-0.106542 0.087899 -0.012830
-0.113983 0.083747 -0.006962
-0.110684 0.085653 -0.010242
-0.112542 0.084395 -0.008184
-0.108763 0.086469 -0.010462
-0.108558 0.086461 -0.010945
-0.111844 0.084094 -0.008403
-0.121487 0.079581 -0.003993
-0.116694 0.081048 -0.005175
-0.124811 0.079152 -0.003128
-0.123938 0.079726 -0.003960
-0.121482 0.079796 -0.004773
-0.121410 0.079617 -0.003966
-0.121490 0.080183 -0.004017
-0.116183 0.082701 -0.006304
-0.122109 0.079532 -0.003810
-0.126006 0.077005 -0.002307
-0.130260 0.076261 -0.000725
-0.133647 0.072966 0.001890
-0.131877 0.074686 0.000591
-0.130449 0.074765 0.000121
-0.132038 0.074185 0.000867
-0.135635 0.071931 0.003653
-0.133573 0.073017 0.002427
-0.133471 0.073080 0.002408
-0.136572 0.070470 0.004709
-0.129703 0.075862 -0.001266
-0.146722 0.061839 0.008537
-0.147965 0.061122 0.009191
-0.147276 0.061606 0.008683
-0.141819 0.065934 0.008207
-0.144322 0.064265 0.008143
-0.143961 0.064328 0.008395
-0.147145 0.062091 0.008748
-0.142556 0.066521 0.008205
-0.143546 0.065234 0.008127
-0.145978 0.062416 0.008971
-0.156320 0.060726 0.025541
-0.153287 0.060402 0.019453
-0.154502 0.060468 0.021752
-0.149040 0.060316 0.009966
-0.149341 0.060586 0.010794
-0.151351 0.060558 0.014376
-0.149949 0.060445 0.011615
-0.148679 0.060865 0.009722
-0.148472 0.060635 0.008932
-0.152610 0.060183 0.017686
-0.157026 0.060610 0.025862
-0.157225 0.060226 0.026482
-0.157600 0.060323 0.026426
